
23385            

  1.601724 8.603394 14.281671
  1.596426 8.586639 14.329429
  1.632361 8.608978 14.301264
  1.635752 8.637396 14.250093
  1.620428 8.627514 14.241791
  1.581335 8.577730 14.320088
  1.611621 8.582371 14.340491
  1.651356 8.634111 14.260629
  1.737910 8.792948 13.905008
  1.726299 8.780054 13.896556
  1.725049 8.765993 13.959554
  1.753157 8.795948 13.916405
  1.750381 8.823009 13.851783
  1.739911 8.809692 13.842620
  1.712346 8.753592 13.951673
  1.740655 8.768269 13.970472
  1.765274 8.826590 13.863628
  -0.228720 7.472341 15.086327
  -0.227330 7.474525 15.066170
  -0.266830 7.483077 15.084088
  -0.231526 7.457270 15.098843
  -0.190999 7.462893 15.087952
  -0.189778 7.465573 15.067835
  -0.265243 7.484763 15.063908
  -0.270197 7.468507 15.096922
  -0.193229 7.447365 15.100157
  1.786577 8.934598 13.712376
  1.778888 8.920872 13.700830
  1.774098 8.893398 13.756203
  1.800966 8.938972 13.724743
  1.801132 8.980654 13.666927
  1.793918 8.966889 13.654898
  1.765668 8.879686 13.745394
  1.788606 8.897667 13.768485
  1.815230 8.984978 13.679543
  1.868439 9.140057 13.502773
  1.860776 9.124862 13.492035
  1.841463 9.089882 13.558363
  1.879421 9.143222 13.518598
  1.899892 9.169088 13.460618
  1.892056 9.152390 13.451048
  1.834151 9.075541 13.546732
  1.853800 9.093653 13.572724
  1.909578 9.171288 13.477993
  -0.146975 6.719087 14.114176
  -0.148749 6.730020 14.129476
  -0.114345 6.718099 14.116543
  -0.147114 6.704856 14.101892
  -0.178780 6.720381 14.111265
  -0.180757 6.731230 14.126597
  -0.115811 6.729084 14.131830
  -0.114498 6.703809 14.104361
  -0.178899 6.706226 14.098862
  -0.281705 6.726324 14.099987
  -0.283694 6.736674 14.115609
  -0.245875 6.723948 14.104125
  -0.281908 6.712459 14.087182
  -0.317792 6.729212 14.095492
  -0.319731 6.739420 14.111206
  -0.247929 6.734486 14.119630
  -0.246017 6.709990 14.091441
  -0.318083 6.715403 14.082622
  -0.999932 7.160135 13.547088
  -1.000247 7.174459 13.559444
  -0.964419 7.121898 13.590523
  -1.004113 7.145805 13.535772
  -1.035255 7.199087 13.500472
  -1.035898 7.213606 13.512601
  -0.964484 7.135904 13.603209
  -0.968787 7.107960 13.578795
  -1.039163 7.184417 13.489465
  -1.134373 7.320709 13.353074
  -1.135815 7.334815 13.365337
  -1.102430 7.279047 13.402781
  -1.137760 7.305871 13.341728
  -1.166306 7.364392 13.302921
  -1.167791 7.378066 13.315519
  -1.103692 7.293458 13.414852
  -1.105876 7.264091 13.391759
  -1.169812 7.349847 13.291144
  -1.268682 7.512543 13.153100
  -1.269155 7.524431 13.167474
  -1.233403 7.460527 13.201658
  -1.273958 7.499910 13.140114
  -1.304182 7.565708 13.109200
  -1.303964 7.576865 13.124271
  -1.234408 7.473077 13.215345
  -1.237867 7.447100 13.189016
  -1.310391 7.553983 13.095942
  -1.406615 7.723781 13.026180
  -1.403686 7.732256 13.042858
  -1.373047 7.671044 13.045194
  -1.415504 7.715010 13.012567
  -1.440810 7.778801 13.014009
  -1.436908 7.786099 13.031021
  -1.371090 7.680521 13.061443
  -1.381191 7.661339 13.031658
  -1.450055 7.770721 13.000243
  0.660665 6.830987 13.907049
  0.666725 6.844159 13.919060
  0.684397 6.846335 13.874157
  0.658943 6.815235 13.896805
  0.635645 6.816605 13.939850
  0.641661 6.829856 13.951920
  0.690253 6.859308 13.886316
  0.682797 6.830868 13.863474
  0.634028 6.800711 13.929893
  0.999932 7.160135 13.547088
  1.000247 7.174459 13.559445
  1.035255 7.199087 13.500472
  1.004113 7.145805 13.535771
  0.964419 7.121898 13.590523
  0.964484 7.135904 13.603209
  1.035898 7.213606 13.512601
  1.039164 7.184417 13.489464
  0.968787 7.107960 13.578795
  1.134373 7.320709 13.353074
  1.135815 7.334814 13.365337
  1.166306 7.364393 13.302921
  1.137760 7.305870 13.341728
  1.102430 7.279047 13.402781
  1.103692 7.293458 13.414853
  1.167791 7.378066 13.315519
  1.169812 7.349847 13.291145
  1.105876 7.264091 13.391760
  1.268682 7.512543 13.153101
  1.269155 7.524431 13.167475
  1.304182 7.565708 13.109200
  1.273958 7.499911 13.140114
  1.233403 7.460527 13.201658
  1.234408 7.473078 13.215345
  1.303964 7.576865 13.124273
  1.310392 7.553984 13.095942
  1.237867 7.447100 13.189016
  0.443792 7.196832 14.997708
  0.444111 7.198893 14.978620
  0.483152 7.217172 14.997748
  0.441789 7.203049 15.015383
  0.401554 7.185925 14.995485
  0.402362 7.188250 14.976508
  0.482859 7.219023 14.978679
  0.481290 7.223127 15.015470
  0.399732 7.191578 15.013138
  1.008627 7.405142 14.969080
  1.003993 7.395758 14.952198
  0.991498 7.465157 14.950913
  1.003800 7.408283 14.987926
  1.025781 7.294214 14.984777
  1.020978 7.285070 14.968203
  0.986330 7.456170 14.932957
  0.986589 7.469080 14.970094
  1.021165 7.296710 15.003588
  1.904718 8.322827 14.276569
  1.893592 8.308897 14.268339
  1.863262 8.380661 14.261892
  1.909147 8.330581 14.293781
  1.942906 8.212050 14.285649
  1.930886 8.199485 14.277643
  1.851711 8.365629 14.253357
  1.865852 8.390298 14.279585
  1.948989 8.218183 14.302693
  1.715303 7.753138 13.063143
  1.711244 7.755417 13.083872
  1.766795 7.737191 13.067970
  1.711271 7.737210 13.051020
  1.672943 7.776196 13.056230
  1.667241 7.778019 13.077141
  1.763910 7.739450 13.088816
  1.761719 7.721254 13.057039
  1.669138 7.760231 13.042099
  1.953760 7.674558 13.062883
  1.955557 7.673236 13.083528
  2.017025 7.643152 13.048805
  1.942545 7.660626 13.053459
  1.888745 7.700936 13.069248
  1.888675 7.701322 13.090153
  2.020672 7.639939 13.069077
  2.003480 7.630477 13.039703
  1.879869 7.685938 13.059469
  2.166034 7.496351 12.946295
  2.173056 7.488598 12.965380
  2.198154 7.370475 12.905035
  2.147598 7.487129 12.938659
  2.124961 7.566679 12.988376
  2.131299 7.560122 13.007818
  2.205533 7.361857 12.923860
  2.178917 7.362015 12.897900
  2.107714 7.556464 12.980176
  1.809508 7.442404 13.234102
  1.819268 7.457613 13.243422
  1.742727 7.468339 13.247874
  1.808364 7.443101 13.213379
  1.868566 7.404833 13.216358
  1.881375 7.418082 13.225424
  1.748469 7.486531 13.257652
  1.742719 7.467375 13.226233
  1.865656 7.407471 13.196123
  1.994828 7.241722 13.118034
  2.012936 7.251340 13.125923
  1.961314 7.315096 13.157007
  1.988133 7.249080 13.098695
  2.020270 7.114295 13.080357
  2.039227 7.123115 13.087770
  1.978157 7.325747 13.165401
  1.955380 7.321218 13.137371
  2.013173 7.122555 13.061255
  1.456110 7.004561 13.565069
  1.460701 7.003357 13.583668
  1.481678 6.965165 13.552542
  1.440809 6.998372 13.555475
  1.429163 7.048148 13.565643
  1.431957 7.050940 13.585817
  1.487504 6.961064 13.570303
  1.465352 6.961716 13.543264
  1.414513 7.039068 13.555792
  1.529135 6.836933 13.476755
  1.536375 6.829202 13.493880
  1.535422 6.724023 13.450397
  1.510772 6.838078 13.468284
  1.518846 6.895887 13.504940
  1.525907 6.888661 13.522114
  1.542641 6.716336 13.467619
  1.516943 6.725398 13.442012
  1.500836 6.896214 13.496267
  1.298423 6.882509 13.699102
  1.312824 6.889240 13.709770
  1.263190 6.909239 13.716315
  1.293793 6.884177 13.680208
  1.324185 6.851902 13.679828
  1.340197 6.855818 13.689655
  1.275340 6.919680 13.728702
  1.259137 6.909106 13.696725
  1.318672 6.855537 13.661514
  1.362298 6.738149 13.606562
  1.380536 6.737623 13.615351
  1.354619 6.792391 13.632472
  1.355183 6.745259 13.589117
  1.366522 6.629349 13.582930
  1.384917 6.628442 13.591546
  1.372451 6.792773 13.641552
  1.347735 6.798910 13.614891
  1.359386 6.636568 13.565477
  1.097090 6.582276 13.580416
  1.100751 6.570108 13.594906
  1.110957 6.482516 13.565433
  1.083245 6.584864 13.566432
  1.080577 6.625705 13.598213
  1.085986 6.613286 13.612131
  1.112717 6.470944 13.580607
  1.098059 6.484504 13.550300
  1.066032 6.628581 13.585290
  0.937661 6.858683 13.777464
  0.938667 6.865120 13.794722
  0.932609 6.835088 13.774378
  0.932776 6.855206 13.760100
  0.953825 6.881103 13.777071
  0.952760 6.890137 13.794435
  0.935579 6.839351 13.792695
  0.924661 6.832324 13.757459
  0.950720 6.876892 13.758776
  0.961526 6.762751 13.738020
  0.969658 6.758406 13.754468
  0.978473 6.740201 13.719179
  0.948485 6.761274 13.724520
  0.946771 6.786522 13.754402
  0.953438 6.785274 13.772470
  0.987426 6.733663 13.734548
  0.964579 6.739536 13.706599
  0.934457 6.784649 13.739429
  1.029679 6.677945 13.658049
  1.038489 6.667100 13.671696
  1.046218 6.659178 13.637697
  1.014341 6.679915 13.646540
  1.013106 6.697825 13.678542
  1.022328 6.688187 13.692591
  1.054254 6.647430 13.651167
  1.030927 6.661716 13.626059
  0.997970 6.699036 13.666890
  0.617113 6.469605 14.122455
  0.614447 6.466022 14.141236
  0.621280 6.426032 14.108856
  0.607197 6.472022 14.105928
  0.615433 6.516004 14.129341
  0.612945 6.515877 14.149489
  0.618545 6.420219 14.127061
  0.611369 6.430130 14.092731
  0.605339 6.516673 14.112385
  0.630878 6.285942 14.050989
  0.627964 6.278534 14.069184
  0.631820 6.170461 14.032978
  0.620749 6.291897 14.035091
  0.629015 6.348210 14.070957
  0.626188 6.340672 14.089046
  0.628798 6.163658 14.051351
  0.621660 6.175924 14.016866
  0.618946 6.354179 14.055166
  0.424783 6.442601 14.152087
  0.433998 6.440736 14.168993
  0.412322 6.486088 14.160457
  0.427918 6.446829 14.133388
  0.431580 6.400314 14.140043
  0.441171 6.396245 14.156246
  0.420945 6.487615 14.178650
  0.415347 6.488808 14.140918
  0.434635 6.406098 14.121761
  0.435222 6.264145 14.085474
  0.445326 6.258314 14.101421
  0.435580 6.324691 14.105471
  0.438162 6.271429 14.067226
  0.434073 6.150383 14.066867
  0.444223 6.145059 14.083031
  0.445577 6.318819 14.121313
  0.438479 6.332130 14.087326
  0.437107 6.157045 14.048444
  0.114121 6.443511 14.190906
  0.106950 6.441185 14.209052
  0.112989 6.400965 14.181005
  0.106577 6.446514 14.172862
  0.119329 6.487374 14.196222
  0.112706 6.488611 14.215496
  0.105555 6.396314 14.198606
  0.105358 6.405616 14.163406
  0.112043 6.488847 14.177361
  0.113394 6.266275 14.130821
  0.105839 6.259568 14.148251
  0.112915 6.153523 14.113281
  0.105829 6.272982 14.113389
  0.113690 6.325946 14.149527
  0.106130 6.319290 14.166893
  0.105387 6.147260 14.130857
  0.105387 6.159787 14.095704
  0.106091 6.332602 14.132159
  -0.114121 6.443511 14.190906
  -0.106950 6.441186 14.209053
  -0.119329 6.487374 14.196222
  -0.106577 6.446514 14.172862
  -0.112989 6.400965 14.181005
  -0.105555 6.396314 14.198606
  -0.112706 6.488611 14.215496
  -0.112043 6.488847 14.177361
  -0.105358 6.405616 14.163406
  0.867732 7.302748 15.003151
  0.871834 7.300734 14.983858
  0.884480 7.194494 15.018328
  0.872533 7.311810 15.019979
  0.844455 7.354271 14.987701
  0.848181 7.352475 14.967354
  0.888409 7.192906 14.999281
  0.889972 7.202731 15.035137
  0.848572 7.364343 15.004828
  2.110898 8.571489 13.852875
  2.103002 8.565336 13.834505
  2.153740 8.462264 13.850715
  2.124434 8.586089 13.854431
  2.058798 8.619900 13.861808
  2.051113 8.612459 13.842724
  2.144525 8.457623 13.832699
  2.169446 8.474606 13.851207
  2.069752 8.637315 13.864544
  2.208316 8.700735 13.595094
  2.194091 8.686366 13.593101
  2.159113 8.779846 13.594352
  2.215645 8.706614 13.614108
  2.251107 8.577761 13.587843
  2.235417 8.565418 13.587024
  2.145609 8.762912 13.591114
  2.164326 8.786619 13.614765
  2.260304 8.582404 13.606188
  1.813106 8.223118 14.413975
  1.807214 8.216790 14.396675
  1.853851 8.115543 14.421206
  1.824219 8.236198 14.422355
  1.764179 8.271531 14.409893
  1.758230 8.264215 14.391867
  1.846815 8.110620 14.404251
  1.866825 8.126902 14.429123
  1.773185 8.286541 14.419015
  1.293722 8.072201 14.670962
  1.280808 8.075633 14.657445
  1.313428 8.096333 14.655638
  1.304170 8.073544 14.686651
  1.273298 8.047911 14.686578
  1.260540 8.050966 14.672848
  1.300320 8.100231 14.642416
  1.324092 8.097630 14.671234
  1.283563 8.049344 14.702366
  1.361977 8.159471 14.615438
  1.347961 8.165124 14.603785
  1.377032 8.178518 14.601467
  1.373561 8.161459 14.630817
  1.347285 8.140027 14.628239
  1.333610 8.145095 14.615990
  1.362706 8.184612 14.590341
  1.388969 8.181015 14.616728
  1.358524 8.141628 14.643694
  1.438178 8.239991 14.541437
  1.423440 8.245518 14.530085
  1.468258 8.259466 14.515966
  1.451096 8.244673 14.555771
  1.413799 8.219047 14.564721
  1.399138 8.225145 14.553993
  1.453361 8.264005 14.502920
  1.481676 8.265538 14.529745
  1.426366 8.222803 14.579480
  0.080718 7.253352 14.962373
  0.080562 7.269292 14.950262
  0.123547 7.249972 14.965007
  0.081325 7.250345 14.983006
  0.039865 7.253902 14.960676
  0.039615 7.270293 14.949377
  0.124170 7.265199 14.951008
  0.125169 7.247378 14.985979
  0.040026 7.250610 14.981172
  1.034600 7.780908 14.838102
  1.024304 7.785432 14.822484
  1.057254 7.810145 14.825600
  1.043406 7.782676 14.855095
  1.013708 7.747115 14.850994
  1.002907 7.750998 14.834370
  1.046825 7.814707 14.810457
  1.066623 7.811810 14.842104
  1.021293 7.748783 14.869070
  1.129231 7.890522 14.785502
  1.117720 7.893975 14.770874
  1.152630 7.915939 14.771370
  1.138907 7.891790 14.801712
  1.105174 7.864072 14.799445
  1.093967 7.867941 14.784669
  1.140862 7.919003 14.756872
  1.162310 7.917175 14.787558
  1.114820 7.865423 14.815701
  1.214678 7.982324 14.730123
  1.202344 7.984851 14.715973
  1.233691 8.002955 14.716293
  1.224520 7.983738 14.746178
  1.195284 7.961603 14.743695
  1.183112 7.964181 14.729431
  1.221211 8.005550 14.702267
  1.243655 8.004440 14.732270
  1.205034 7.962930 14.759816
  1.684034 8.700469 14.115433
  1.669191 8.689407 14.108054
  1.669045 8.680748 14.162824
  1.700076 8.699839 14.125581
  1.698215 8.720463 14.065684
  1.683863 8.709000 14.058347
  1.653896 8.670071 14.155246
  1.685004 8.679098 14.172993
  1.714244 8.720879 14.075939
  1.408515 8.393118 14.593851
  1.395226 8.388995 14.579983
  1.382394 8.366868 14.625174
  1.423638 8.387086 14.604243
  1.436710 8.418665 14.557764
  1.423134 8.413986 14.544436
  1.369416 8.363269 14.610847
  1.397466 8.360612 14.635470
  1.451816 8.412945 14.568376
  0.076989 7.450477 15.096015
  0.076422 7.454116 15.075843
  0.038536 7.450383 15.098633
  0.077761 7.433838 15.107266
  0.115272 7.451940 15.092793
  0.114451 7.455371 15.072674
  0.038247 7.454136 15.078407
  0.038914 7.433530 15.109661
  0.116473 7.435615 15.104349
  0.793839 7.696324 14.960324
  0.787228 7.694927 14.942224
  0.763807 7.676186 14.971440
  0.802679 7.689200 14.975585
  0.824579 7.717932 14.948395
  0.817657 7.716411 14.930466
  0.757440 7.674932 14.953197
  0.772372 7.668690 14.986706
  0.833648 7.711136 14.963654
  0.917328 7.790223 14.909405
  0.909051 7.788485 14.892197
  0.886836 7.765267 14.922731
  0.926960 7.784148 14.924638
  0.946482 7.815098 14.896077
  0.937726 7.813342 14.879128
  0.879058 7.763575 14.905258
  0.896288 7.758986 14.937981
  0.956300 7.809231 14.911283
  1.325519 8.274117 14.671344
  1.313691 8.272163 14.656219
  1.310750 8.240055 14.676315
  1.339777 8.268428 14.682742
  1.341189 8.307388 14.663458
  1.328949 8.304890 14.648511
  1.299325 8.238555 14.661058
  1.324611 8.234887 14.688366
  1.355819 8.301297 14.674272
  1.177311 8.041454 14.758720
  1.167457 8.040049 14.742674
  1.158951 8.020167 14.771544
  1.189656 8.038917 14.772861
  1.195960 8.064159 14.745538
  1.185978 8.062702 14.729578
  1.149193 8.018836 14.755427
  1.171131 8.017594 14.785803
  1.208458 8.061536 14.759548
  1.256712 8.143826 14.703537
  1.246198 8.142622 14.687922
  1.235919 8.115239 14.717445
  1.269693 8.140253 14.716980
  1.276759 8.174252 14.691271
  1.265999 8.173120 14.675781
  1.225609 8.113904 14.701704
  1.248721 8.112086 14.731127
  1.289963 8.170189 14.704386
  -0.443792 7.196832 14.997708
  -0.444111 7.198893 14.978620
  -0.401554 7.185925 14.995485
  -0.441789 7.203049 15.015384
  -0.483153 7.217173 14.997748
  -0.482859 7.219023 14.978679
  -0.402362 7.188250 14.976508
  -0.399732 7.191578 15.013139
  -0.481290 7.223127 15.015470
  -1.008627 7.405142 14.969080
  -1.003993 7.395757 14.952199
  -1.025781 7.294214 14.984777
  -1.003800 7.408282 14.987927
  -0.991498 7.465157 14.950913
  -0.986330 7.456170 14.932957
  -1.020978 7.285070 14.968203
  -1.021164 7.296710 15.003590
  -0.986589 7.469080 14.970094
  -1.904718 8.322827 14.276569
  -1.893592 8.308897 14.268339
  -1.942906 8.212050 14.285650
  -1.909148 8.330581 14.293780
  -1.863262 8.380661 14.261892
  -1.851711 8.365629 14.253358
  -1.930886 8.199485 14.277644
  -1.948989 8.218183 14.302692
  -1.865852 8.390298 14.279585
  -1.715303 7.753138 13.063142
  -1.711244 7.755417 13.083872
  -1.672943 7.776196 13.056230
  -1.711271 7.737209 13.051020
  -1.766795 7.737190 13.067970
  -1.763910 7.739450 13.088816
  -1.667241 7.778019 13.077141
  -1.669138 7.760231 13.042099
  -1.761719 7.721253 13.057039
  -1.953761 7.674558 13.062883
  -1.955557 7.673236 13.083527
  -1.888745 7.700936 13.069249
  -1.942545 7.660626 13.053459
  -2.017025 7.643152 13.048805
  -2.020672 7.639939 13.069077
  -1.888675 7.701322 13.090153
  -1.879869 7.685938 13.059469
  -2.003480 7.630477 13.039702
  -2.166034 7.496351 12.946295
  -2.173056 7.488598 12.965380
  -2.124961 7.566679 12.988377
  -2.147598 7.487129 12.938660
  -2.198154 7.370476 12.905036
  -2.205533 7.361856 12.923859
  -2.131299 7.560122 13.007818
  -2.107714 7.556464 12.980177
  -2.178917 7.362016 12.897901
  -1.809508 7.442404 13.234102
  -1.819269 7.457613 13.243422
  -1.868567 7.404833 13.216357
  -1.808364 7.443102 13.213377
  -1.742727 7.468339 13.247873
  -1.748469 7.486530 13.257651
  -1.881375 7.418082 13.225423
  -1.865656 7.407471 13.196123
  -1.742719 7.467375 13.226233
  -1.994828 7.241722 13.118034
  -2.012936 7.251339 13.125924
  -2.020270 7.114296 13.080357
  -1.988133 7.249080 13.098694
  -1.961314 7.315096 13.157007
  -1.978157 7.325747 13.165401
  -2.039227 7.123115 13.087770
  -2.013173 7.122555 13.061255
  -1.955380 7.321218 13.137371
  -1.456110 7.004561 13.565069
  -1.460701 7.003357 13.583669
  -1.429163 7.048148 13.565643
  -1.440809 6.998372 13.555475
  -1.481678 6.965165 13.552542
  -1.487504 6.961064 13.570304
  -1.431957 7.050940 13.585817
  -1.414513 7.039068 13.555792
  -1.465352 6.961715 13.543264
  -1.529135 6.836933 13.476755
  -1.536375 6.829201 13.493881
  -1.518846 6.895887 13.504939
  -1.510772 6.838078 13.468285
  -1.535422 6.724023 13.450398
  -1.542641 6.716335 13.467620
  -1.525907 6.888660 13.522114
  -1.500837 6.896214 13.496267
  -1.516943 6.725398 13.442012
  -1.298423 6.882509 13.699102
  -1.312824 6.889240 13.709771
  -1.324185 6.851902 13.679828
  -1.293792 6.884177 13.680208
  -1.263190 6.909240 13.716314
  -1.275340 6.919680 13.728702
  -1.340197 6.855818 13.689655
  -1.318672 6.855536 13.661514
  -1.259137 6.909107 13.696726
  -1.362298 6.738148 13.606562
  -1.380536 6.737623 13.615351
  -1.366522 6.629349 13.582930
  -1.355183 6.745259 13.589117
  -1.354619 6.792391 13.632472
  -1.372451 6.792772 13.641550
  -1.384917 6.628441 13.591547
  -1.359386 6.636568 13.565476
  -1.347735 6.798910 13.614891
  -1.097090 6.582276 13.580416
  -1.100751 6.570108 13.594906
  -1.080577 6.625705 13.598213
  -1.083245 6.584863 13.566432
  -1.110957 6.482516 13.565433
  -1.112717 6.470944 13.580607
  -1.085986 6.613286 13.612131
  -1.066032 6.628580 13.585289
  -1.098059 6.484504 13.550300
  -0.937661 6.858683 13.777462
  -0.938667 6.865120 13.794722
  -0.953825 6.881103 13.777070
  -0.932776 6.855206 13.760099
  -0.932609 6.835088 13.774378
  -0.935579 6.839351 13.792695
  -0.952760 6.890137 13.794434
  -0.950720 6.876892 13.758774
  -0.924661 6.832324 13.757459
  -0.961526 6.762751 13.738020
  -0.969658 6.758405 13.754468
  -0.946771 6.786522 13.754402
  -0.948485 6.761274 13.724521
  -0.978473 6.740201 13.719180
  -0.987426 6.733662 13.734548
  -0.953438 6.785274 13.772470
  -0.934457 6.784649 13.739429
  -0.964579 6.739537 13.706600
  -1.029679 6.677945 13.658049
  -1.038489 6.667100 13.671696
  -1.013106 6.697825 13.678543
  -1.014341 6.679915 13.646541
  -1.046218 6.659178 13.637697
  -1.054254 6.647430 13.651167
  -1.022328 6.688187 13.692591
  -0.997970 6.699037 13.666890
  -1.030927 6.661716 13.626059
  -0.617113 6.469605 14.122455
  -0.614447 6.466022 14.141236
  -0.615433 6.516004 14.129341
  -0.607197 6.472022 14.105928
  -0.621280 6.426031 14.108857
  -0.618545 6.420218 14.127060
  -0.612945 6.515877 14.149489
  -0.605339 6.516673 14.112385
  -0.611369 6.430130 14.092732
  -0.630878 6.285942 14.050989
  -0.627964 6.278534 14.069184
  -0.629015 6.348209 14.070956
  -0.620749 6.291897 14.035091
  -0.631820 6.170460 14.032978
  -0.628798 6.163658 14.051351
  -0.626188 6.340672 14.089047
  -0.618946 6.354179 14.055166
  -0.621660 6.175924 14.016867
  -0.424783 6.442601 14.152086
  -0.433998 6.440736 14.168993
  -0.431580 6.400314 14.140043
  -0.427918 6.446829 14.133388
  -0.412322 6.486088 14.160456
  -0.420945 6.487615 14.178650
  -0.441171 6.396245 14.156247
  -0.434635 6.406098 14.121760
  -0.415347 6.488809 14.140917
  -0.435222 6.264145 14.085473
  -0.445326 6.258314 14.101421
  -0.434073 6.150383 14.066867
  -0.438162 6.271429 14.067226
  -0.435580 6.324691 14.105471
  -0.445577 6.318819 14.121313
  -0.444223 6.145058 14.083031
  -0.437107 6.157045 14.048444
  -0.438479 6.332130 14.087327
  1.111607 3.784315 13.548162
  1.104346 3.785155 13.565741
  1.102630 3.408943 13.547581
  1.106993 3.785361 13.529644
  1.115485 4.225329 13.548072
  1.108347 4.219959 13.566141
  1.095909 3.427615 13.563416
  1.098501 3.427614 13.530881
  1.110384 4.220786 13.529050
  0.937715 5.467596 13.534525
  0.945241 5.470004 13.552982
  0.940255 5.853754 13.539246
  0.942583 5.474904 13.516849
  0.935213 5.023679 13.533223
  0.941597 5.027085 13.552017
  0.949086 5.855049 13.557154
  0.943683 5.862102 13.521954
  0.941202 5.030072 13.515306
  -0.867732 7.302748 15.003151
  -0.871834 7.300733 14.983859
  -0.844455 7.354271 14.987701
  -0.872533 7.311810 15.019979
  -0.884480 7.194494 15.018328
  -0.888409 7.192906 14.999282
  -0.848181 7.352475 14.967354
  -0.848572 7.364343 15.004828
  -0.889972 7.202731 15.035136
  -2.110898 8.571490 13.852876
  -2.103002 8.565335 13.834506
  -2.058798 8.619900 13.861809
  -2.124434 8.586090 13.854430
  -2.153740 8.462265 13.850714
  -2.144525 8.457623 13.832699
  -2.051113 8.612458 13.842726
  -2.069752 8.637316 13.864544
  -2.169446 8.474607 13.851206
  -2.208316 8.700735 13.595094
  -2.194091 8.686366 13.593101
  -2.251107 8.577761 13.587844
  -2.215645 8.706612 13.614107
  -2.159113 8.779845 13.594353
  -2.145609 8.762912 13.591115
  -2.235417 8.565418 13.587025
  -2.260304 8.582403 13.606188
  -2.164326 8.786618 13.614765
  -1.813106 8.223118 14.413975
  -1.807214 8.216791 14.396675
  -1.764179 8.271531 14.409893
  -1.824219 8.236198 14.422355
  -1.853851 8.115543 14.421206
  -1.846815 8.110620 14.404250
  -1.758230 8.264215 14.391867
  -1.773185 8.286541 14.419015
  -1.866825 8.126902 14.429123
  -1.293722 8.072201 14.670963
  -1.280808 8.075633 14.657446
  -1.273298 8.047911 14.686578
  -1.304170 8.073544 14.686652
  -1.313428 8.096333 14.655638
  -1.300320 8.100231 14.642417
  -1.260540 8.050966 14.672848
  -1.283563 8.049344 14.702365
  -1.324092 8.097630 14.671234
  -1.361977 8.159471 14.615438
  -1.347961 8.165124 14.603785
  -1.347285 8.140027 14.628239
  -1.373561 8.161460 14.630817
  -1.377032 8.178518 14.601467
  -1.362705 8.184612 14.590340
  -1.333610 8.145095 14.615990
  -1.358524 8.141628 14.643694
  -1.388969 8.181015 14.616728
  -1.438178 8.239991 14.541437
  -1.423440 8.245517 14.530085
  -1.413799 8.219047 14.564722
  -1.451096 8.244673 14.555773
  -1.468258 8.259466 14.515966
  -1.453361 8.264005 14.502920
  -1.399138 8.225144 14.553993
  -1.426366 8.222803 14.579481
  -1.481676 8.265538 14.529745
  -0.080718 7.253352 14.962373
  -0.080562 7.269293 14.950263
  -0.039865 7.253902 14.960676
  -0.081325 7.250345 14.983006
  -0.123547 7.249973 14.965006
  -0.124170 7.265199 14.951008
  -0.039615 7.270293 14.949377
  -0.040026 7.250610 14.981172
  -0.125169 7.247379 14.985978
  -1.034600 7.780907 14.838102
  -1.024304 7.785432 14.822484
  -1.013708 7.747115 14.850993
  -1.043406 7.782676 14.855095
  -1.057254 7.810145 14.825600
  -1.046825 7.814707 14.810458
  -1.002907 7.750998 14.834370
  -1.021293 7.748782 14.869069
  -1.066623 7.811810 14.842104
  -1.129231 7.890522 14.785501
  -1.117720 7.893975 14.770874
  -1.105174 7.864072 14.799444
  -1.138907 7.891790 14.801713
  -1.152630 7.915939 14.771370
  -1.140862 7.919003 14.756872
  -1.093967 7.867941 14.784670
  -1.114820 7.865423 14.815700
  -1.162310 7.917175 14.787558
  -1.214678 7.982324 14.730123
  -1.202344 7.984851 14.715972
  -1.195284 7.961604 14.743695
  -1.224520 7.983738 14.746178
  -1.233691 8.002955 14.716293
  -1.221211 8.005550 14.702267
  -1.183112 7.964181 14.729431
  -1.205034 7.962931 14.759815
  -1.243655 8.004440 14.732270
  2.016506 9.034817 13.493567
  2.007216 9.019157 13.484093
  1.974439 9.114938 13.457067
  2.022229 9.041573 13.510489
  2.060999 8.939676 13.539286
  2.049984 8.922543 13.531776
  1.966041 9.098426 13.447685
  1.981514 9.119255 13.474405
  2.065351 8.947216 13.558228
  -0.548349 7.564174 15.030964
  -0.543656 7.564179 15.011942
  -0.585693 7.579254 15.022549
  -0.554115 7.553559 15.046088
  -0.508992 7.549776 15.039661
  -0.504804 7.549953 15.020454
  -0.580550 7.579083 15.003687
  -0.591790 7.569072 15.037800
  -0.514459 7.538706 15.054595
  -0.679744 7.624733 14.998819
  -0.673831 7.624002 14.980284
  -0.707213 7.640591 14.990586
  -0.687112 7.615914 15.014156
  -0.651165 7.609539 15.006647
  -0.645417 7.608997 14.988024
  -0.701171 7.639675 14.972134
  -0.715034 7.632238 15.005896
  -0.658073 7.600249 15.021996
  -0.793839 7.696324 14.960324
  -0.787228 7.694928 14.942224
  -0.824579 7.717932 14.948395
  -0.802679 7.689200 14.975585
  -0.763807 7.676186 14.971440
  -0.757440 7.674932 14.953197
  -0.817657 7.716411 14.930466
  -0.833648 7.711136 14.963654
  -0.772372 7.668690 14.986707
  -0.917328 7.790223 14.909406
  -0.909051 7.788485 14.892198
  -0.946482 7.815098 14.896077
  -0.926960 7.784148 14.924639
  -0.886836 7.765267 14.922732
  -0.879058 7.763575 14.905259
  -0.937726 7.813343 14.879128
  -0.956300 7.809231 14.911282
  -0.896288 7.758986 14.937982
  -1.177311 8.041454 14.758722
  -1.167457 8.040049 14.742675
  -1.195960 8.064159 14.745537
  -1.189656 8.038917 14.772862
  -1.158951 8.020167 14.771544
  -1.149193 8.018836 14.755428
  -1.185978 8.062702 14.729578
  -1.208458 8.061536 14.759548
  -1.171131 8.017593 14.785803
  -1.256712 8.143826 14.703537
  -1.246198 8.142622 14.687922
  -1.276759 8.174252 14.691271
  -1.269693 8.140253 14.716980
  -1.235919 8.115239 14.717443
  -1.225609 8.113903 14.701704
  -1.265999 8.173120 14.675781
  -1.289963 8.170189 14.704386
  -1.248721 8.112086 14.731127
  -1.041777 4.580776 15.008372
  -1.032816 4.583071 14.991926
  -1.034789 4.207473 15.010036
  -1.041414 4.583253 15.027128
  -1.044633 5.021194 15.007872
  -1.035598 5.017354 14.990887
  -1.026599 4.227464 14.995255
  -1.034460 4.227464 15.026932
  -1.044065 5.018085 15.027229
  -0.660665 6.830987 13.907048
  -0.666725 6.844160 13.919061
  -0.635645 6.816606 13.939850
  -0.658943 6.815235 13.896805
  -0.684397 6.846335 13.874157
  -0.690253 6.859308 13.886317
  -0.641661 6.829856 13.951920
  -0.634028 6.800711 13.929893
  -0.682797 6.830868 13.863474
  -1.408515 8.393119 14.593851
  -1.395226 8.388996 14.579983
  -1.436710 8.418665 14.557764
  -1.423638 8.387086 14.604243
  -1.382394 8.366869 14.625174
  -1.369416 8.363270 14.610847
  -1.423134 8.413987 14.544436
  -1.451816 8.412944 14.568376
  -1.397466 8.360613 14.635470
  -1.879634 8.615946 13.961533
  -1.868032 8.606956 13.947817
  -1.827452 8.595716 14.011838
  -1.888637 8.629919 13.969032
  -1.939044 8.628773 13.916509
  -1.929788 8.619696 13.900084
  -1.811271 8.587922 13.999149
  -1.836556 8.609238 14.020948
  -1.947693 8.645452 13.922276
  -1.780544 8.492075 14.163149
  -1.767340 8.480892 14.153614
  -1.797194 8.452076 14.205210
  -1.787030 8.502644 14.176348
  -1.776550 8.531960 14.115391
  -1.759685 8.523319 14.104565
  -1.784949 8.438457 14.196193
  -1.801036 8.462795 14.220757
  -1.784602 8.543949 14.127104
  -1.601294 8.290707 14.442828
  -1.591361 8.285866 14.428116
  -1.550427 8.285527 14.465188
  -1.610418 8.300015 14.454704
  -1.655415 8.291605 14.424180
  -1.647297 8.284725 14.407750
  -1.538066 8.284367 14.450595
  -1.561776 8.293519 14.477754
  -1.663154 8.304272 14.435169
  -0.976921 7.604902 14.896019
  -0.970310 7.602367 14.878524
  -0.974465 7.552229 14.913469
  -0.978757 7.607797 14.913809
  -0.984123 7.657895 14.879753
  -0.975376 7.658118 14.862252
  -0.968503 7.546848 14.895207
  -0.973133 7.556026 14.931901
  -0.988271 7.660036 14.898081
  -0.733564 7.405810 14.965210
  -0.732043 7.407092 14.946022
  -0.690040 7.410073 14.966082
  -0.736496 7.410981 14.982925
  -0.776009 7.393606 14.967798
  -0.776836 7.393126 14.947707
  -0.685973 7.415087 14.946167
  -0.692896 7.414721 14.985231
  -0.779158 7.401282 14.985168
  -0.582157 7.328518 14.983212
  -0.578558 7.330391 14.964388
  -0.551387 7.285744 14.990041
  -0.582133 7.330398 15.001680
  -0.613839 7.369812 14.976034
  -0.608723 7.374976 14.956126
  -0.549144 7.286877 14.971370
  -0.550483 7.288771 15.008001
  -0.615141 7.372757 14.995668
  -0.262691 7.207538 14.979496
  -0.264797 7.212928 14.961714
  -0.215039 7.225539 14.973695
  -0.263666 7.207318 14.997561
  -0.310295 7.192816 14.985725
  -0.312069 7.196301 14.967406
  -0.217067 7.234905 14.956562
  -0.217030 7.224120 14.993189
  -0.310086 7.194795 15.003336
  0.262691 7.207538 14.979496
  0.264797 7.212928 14.961714
  0.310295 7.192816 14.985726
  0.263666 7.207317 14.997561
  0.215039 7.225538 14.973696
  0.217067 7.234905 14.956562
  0.312069 7.196301 14.967407
  0.310086 7.194795 15.003336
  0.217030 7.224120 14.993189
  0.582157 7.328518 14.983212
  0.578558 7.330391 14.964388
  0.613839 7.369812 14.976034
  0.582133 7.330398 15.001678
  0.551387 7.285744 14.990041
  0.549144 7.286877 14.971370
  0.608723 7.374976 14.956126
  0.615141 7.372756 14.995667
  0.550483 7.288771 15.008000
  0.733564 7.405810 14.965210
  0.732043 7.407092 14.946022
  0.776009 7.393606 14.967798
  0.736496 7.410981 14.982926
  0.690040 7.410073 14.966082
  0.685973 7.415087 14.946166
  0.776836 7.393126 14.947706
  0.779158 7.401282 14.985168
  0.692896 7.414721 14.985232
  0.976921 7.604902 14.896019
  0.970310 7.602366 14.878524
  0.984123 7.657894 14.879753
  0.978757 7.607797 14.913809
  0.974465 7.552229 14.913469
  0.968503 7.546847 14.895207
  0.975376 7.658118 14.862252
  0.988271 7.660036 14.898081
  0.973133 7.556026 14.931901
  1.601294 8.290707 14.442829
  1.591361 8.285866 14.428116
  1.655415 8.291605 14.424179
  1.610418 8.300016 14.454705
  1.550427 8.285528 14.465187
  1.538066 8.284368 14.450594
  1.647297 8.284725 14.407750
  1.663154 8.304272 14.435168
  1.561776 8.293520 14.477755
  1.780544 8.492075 14.163149
  1.767340 8.480892 14.153614
  1.776550 8.531960 14.115390
  1.787030 8.502645 14.176348
  1.797194 8.452077 14.205210
  1.784950 8.438458 14.196193
  1.759685 8.523319 14.104564
  1.784602 8.543950 14.127104
  1.801036 8.462795 14.220757
  1.879634 8.615946 13.961533
  1.868032 8.606956 13.947818
  1.939044 8.628773 13.916510
  1.888637 8.629919 13.969031
  1.827452 8.595717 14.011837
  1.811271 8.587923 13.999149
  1.929788 8.619695 13.900085
  1.947693 8.645452 13.922276
  1.836556 8.609239 14.020947
  -0.903033 6.308987 15.042171
  -0.905071 6.310139 15.022842
  -0.901083 6.697502 15.038397
  -0.910705 6.314631 15.059172
  -0.902651 5.864190 15.043440
  -0.904016 5.866241 15.024081
  -0.903832 6.697677 15.019123
  -0.908032 6.704056 15.055367
  -0.910962 5.869000 15.060450
  1.624556 7.937204 13.030251
  1.619450 7.939669 13.048712
  1.629884 7.873076 13.039050
  1.625798 7.927626 13.013590
  1.619102 7.989058 13.022304
  1.613686 7.990164 13.040525
  1.623851 7.875278 13.058669
  1.628779 7.860927 13.022388
  1.621618 7.979436 13.005875
  -2.016506 9.034816 13.493565
  -2.007216 9.019156 13.484093
  -2.060999 8.939675 13.539286
  -2.022229 9.041572 13.510489
  -1.974439 9.114937 13.457067
  -1.966041 9.098425 13.447684
  -2.049984 8.922543 13.531776
  -2.065351 8.947216 13.558227
  -1.981514 9.119255 13.474404
  2.238631 4.615754 12.842810
  2.245162 4.613122 12.861707
  2.229729 4.234983 12.851397
  2.219949 4.613167 12.835619
  2.241732 5.059175 12.839794
  2.248565 5.050467 12.859237
  2.235500 4.250410 12.868498
  2.212852 4.250410 12.844995
  2.222400 5.050647 12.832397
  -0.326051 6.598838 14.163204
  -0.329374 6.607522 14.179976
  -0.362231 6.566602 14.165046
  -0.325730 6.594645 14.144910
  -0.287100 6.622692 14.161568
  -0.288894 6.635292 14.177935
  -0.367700 6.573235 14.183098
  -0.363417 6.564816 14.145991
  -0.285536 6.617322 14.142477
  0.180325 6.600090 14.180629
  0.179338 6.608878 14.197784
  0.152392 6.568153 14.190104
  0.177362 6.595354 14.162708
  0.212488 6.623383 14.170494
  0.212562 6.636060 14.187041
  0.149215 6.574815 14.208796
  0.147747 6.565492 14.171600
  0.209976 6.617754 14.151594
  0.326051 6.598838 14.163204
  0.329374 6.607522 14.179976
  0.287100 6.622692 14.161566
  0.325730 6.594645 14.144908
  0.362231 6.566602 14.165045
  0.367700 6.573235 14.183099
  0.288894 6.635292 14.177933
  0.285536 6.617322 14.142476
  0.363417 6.564816 14.145990
  0.647179 6.658854 14.084251
  0.649021 6.668324 14.100463
  0.629832 6.612689 14.110497
  0.639786 6.652092 14.069575
  0.669548 6.699609 14.050261
  0.672201 6.713847 14.065013
  0.629873 6.618994 14.129280
  0.621419 6.608569 14.094686
  0.661323 6.690929 14.035815
  -0.647179 6.658854 14.084252
  -0.649021 6.668324 14.100462
  -0.669548 6.699609 14.050261
  -0.639786 6.652092 14.069575
  -0.629832 6.612689 14.110497
  -0.629873 6.618994 14.129279
  -0.672201 6.713847 14.065014
  -0.661323 6.690928 14.035816
  -0.621419 6.608569 14.094686
  1.375930 7.205227 13.463836
  1.375472 7.216889 13.479211
  1.385679 7.149108 13.513124
  1.368763 7.192590 13.451462
  1.378379 7.263027 13.410196
  1.374795 7.278025 13.423049
  1.386316 7.158373 13.531702
  1.375592 7.136806 13.502266
  1.371772 7.249899 13.394835
  1.094985 6.927557 13.758018
  1.097201 6.938469 13.773890
  1.034532 6.916758 13.767197
  1.092713 6.922425 13.740330
  1.158370 6.932306 13.745974
  1.164104 6.944677 13.761111
  1.033881 6.927751 13.784086
  1.032501 6.911426 13.748985
  1.155508 6.928527 13.727327
  1.517393 7.421646 13.298283
  1.515873 7.438302 13.308681
  1.450141 7.374421 13.324877
  1.517179 7.412234 13.280371
  1.592721 7.457815 13.277514
  1.592866 7.476388 13.287866
  1.445806 7.391552 13.335394
  1.446920 7.362647 13.306880
  1.593519 7.451646 13.257676
  -1.094985 6.927557 13.758017
  -1.097201 6.938469 13.773889
  -1.158370 6.932307 13.745974
  -1.092713 6.922425 13.740328
  -1.034532 6.916758 13.767195
  -1.033881 6.927751 13.784084
  -1.164104 6.944677 13.761110
  -1.155508 6.928527 13.727327
  -1.032501 6.911426 13.748984
  -1.375930 7.205227 13.463836
  -1.375472 7.216889 13.479210
  -1.378379 7.263027 13.410196
  -1.368763 7.192590 13.451462
  -1.385679 7.149108 13.513124
  -1.386316 7.158373 13.531702
  -1.374795 7.278024 13.423049
  -1.371772 7.249899 13.394835
  -1.375592 7.136806 13.502266
  -1.517393 7.421646 13.298283
  -1.515873 7.438302 13.308681
  -1.592721 7.457815 13.277514
  -1.517179 7.412234 13.280369
  -1.450141 7.374420 13.324875
  -1.445805 7.391551 13.335392
  -1.592866 7.476388 13.287865
  -1.593519 7.451646 13.257675
  -1.446920 7.362647 13.306879
  0.944326 6.438557 13.588032
  0.957101 6.436782 13.602596
  0.943554 6.482553 13.613146
  0.941736 6.449914 13.572959
  0.943876 6.338749 13.566069
  0.955417 6.337860 13.581963
  0.957384 6.480143 13.626431
  0.938859 6.494506 13.598866
  0.943475 6.349222 13.550131
  0.890202 6.664208 13.784806
  0.904424 6.667222 13.797317
  0.871298 6.694889 13.811121
  0.880558 6.668603 13.768974
  0.904360 6.632137 13.760988
  0.918935 6.633085 13.773034
  0.885445 6.701471 13.824305
  0.861472 6.697770 13.793341
  0.894725 6.638393 13.746157
  0.931757 6.544837 13.690155
  0.947054 6.542737 13.701609
  0.924384 6.571409 13.714458
  0.922989 6.555810 13.676562
  0.937397 6.521045 13.665166
  0.952504 6.518459 13.676840
  0.939627 6.570099 13.725960
  0.915055 6.581146 13.700562
  0.929545 6.532839 13.651662
  -0.944326 6.438557 13.588032
  -0.957101 6.436782 13.602596
  -0.943876 6.338749 13.566067
  -0.941736 6.449914 13.572959
  -0.943554 6.482553 13.613145
  -0.957384 6.480143 13.626429
  -0.955417 6.337860 13.581964
  -0.943475 6.349222 13.550129
  -0.938859 6.494506 13.598866
  -0.890202 6.664208 13.784806
  -0.904424 6.667222 13.797316
  -0.904360 6.632137 13.760988
  -0.880558 6.668603 13.768974
  -0.871298 6.694888 13.811121
  -0.885445 6.701470 13.824305
  -0.918935 6.633085 13.773033
  -0.894725 6.638393 13.746156
  -0.861472 6.697770 13.793341
  -0.931757 6.544836 13.690155
  -0.947054 6.542737 13.701609
  -0.937397 6.521044 13.665167
  -0.922989 6.555809 13.676561
  -0.924384 6.571408 13.714458
  -0.939627 6.570099 13.725960
  -0.952504 6.518458 13.676840
  -0.929545 6.532839 13.651661
  -0.915055 6.581145 13.700562
  0.773838 6.744391 13.923448
  0.782178 6.756028 13.935423
  0.734402 6.743212 13.967573
  0.765066 6.737749 13.908221
  0.812198 6.736820 13.880716
  0.823433 6.747469 13.893363
  0.740014 6.758315 13.980165
  0.725236 6.734390 13.952995
  0.802976 6.733887 13.863370
  -0.773838 6.744391 13.923448
  -0.782178 6.756028 13.935422
  -0.812198 6.736820 13.880717
  -0.765066 6.737749 13.908221
  -0.734402 6.743212 13.967573
  -0.740014 6.758315 13.980165
  -0.823433 6.747469 13.893363
  -0.802976 6.733887 13.863370
  -0.725236 6.734391 13.952995
  0.000000 6.716846 14.119686
  0.000000 6.727885 14.134972
  0.040651 6.716986 14.119337
  0.000000 6.702480 14.107639
  -0.040651 6.716986 14.119337
  -0.041204 6.728019 14.134623
  0.041204 6.728018 14.134623
  0.040733 6.702627 14.107275
  -0.040733 6.702627 14.107275
  -0.113394 6.266274 14.130819
  -0.105839 6.259568 14.148251
  -0.113690 6.325946 14.149525
  -0.105829 6.272981 14.113388
  -0.112915 6.153523 14.113280
  -0.105387 6.147260 14.130857
  -0.106130 6.319290 14.166892
  -0.106091 6.332602 14.132158
  -0.105387 6.159787 14.095703
  1.551663 7.961105 13.005662
  1.545435 7.963513 13.023331
  1.583825 8.002313 13.009495
  1.558290 7.952415 12.990441
  1.514693 7.902407 13.004734
  1.509038 7.906614 13.022184
  1.577437 8.002972 13.027517
  1.588815 7.992573 12.993812
  1.522759 7.894398 12.990112
  -1.624556 7.937204 13.030251
  -1.619450 7.939669 13.048711
  -1.619101 7.989058 13.022304
  -1.625798 7.927625 13.013590
  -1.629884 7.873076 13.039049
  -1.623851 7.875278 13.058670
  -1.613686 7.990164 13.040524
  -1.621618 7.979435 13.005876
  -1.628779 7.860928 13.022387
  -0.180325 6.600090 14.180629
  -0.179338 6.608878 14.197784
  -0.212488 6.623383 14.170494
  -0.177362 6.595355 14.162708
  -0.152392 6.568153 14.190104
  -0.149215 6.574816 14.208796
  -0.212562 6.636060 14.187040
  -0.209976 6.617754 14.151594
  -0.147747 6.565492 14.171600
  2.053416 6.197737 13.022533
  2.073074 6.205859 13.029556
  2.048444 6.592139 13.031382
  2.046251 6.206809 13.003448
  2.054797 5.749938 13.019880
  2.074342 5.758208 13.027048
  2.068100 6.600238 13.038347
  2.041189 6.601205 13.012403
  2.047769 5.758883 13.000646
  -1.370711 3.916601 13.547548
  -1.387616 3.925179 13.557253
  -1.378773 3.552381 13.541155
  -1.364942 3.925331 13.528956
  -1.368160 4.354138 13.549462
  -1.385661 4.356796 13.559422
  -1.394044 3.578106 13.549846
  -1.373682 3.578106 13.524337
  -1.362113 4.357404 13.530360
  -1.541066 5.834214 13.412006
  -1.547668 5.828735 13.430195
  -1.540574 6.223102 13.417405
  -1.523017 5.833768 13.402956
  -1.540808 5.389616 13.410907
  -1.547171 5.385080 13.429487
  -1.547422 6.216679 13.435196
  -1.522308 6.223545 13.408708
  -1.522990 5.388239 13.401478
  -0.433351 3.430964 14.038614
  -0.442748 3.437226 14.055469
  -0.442822 3.063417 14.037133
  -0.436988 3.437401 14.019672
  -0.430262 3.869529 14.039001
  -0.439968 3.869771 14.056378
  -0.451361 3.087035 14.052293
  -0.446198 3.087035 14.020064
  -0.433960 3.870471 14.019474
  -0.632020 5.277829 14.006968
  -0.628600 5.274314 14.026025
  -0.632185 5.666931 14.010740
  -0.622045 5.280171 13.990069
  -0.631757 4.833403 14.006062
  -0.628214 4.831009 14.025326
  -0.628901 5.662214 14.029567
  -0.622107 5.670455 13.994091
  -0.621894 4.834625 13.988951
  1.908777 5.404183 14.439560
  1.896061 5.413144 14.425607
  1.912609 5.040621 14.433129
  1.926955 5.413349 14.444531
  1.907882 5.841349 14.441403
  1.894908 5.844316 14.426875
  1.901155 5.066723 14.420551
  1.929050 5.066724 14.437497
  1.926490 5.845132 14.446691
  1.995765 7.329565 14.298519
  1.979570 7.322084 14.291851
  1.989175 7.716197 14.295466
  2.006161 7.330479 14.314457
  1.996108 6.886880 14.300614
  1.978861 6.880985 14.294527
  1.974239 7.706963 14.288219
  1.998245 7.718935 14.311958
  2.007627 6.886130 14.315968
  1.537102 4.002709 13.414728
  1.542872 4.005521 13.433320
  1.528937 3.630103 13.421291
  1.520197 4.005679 13.405025
  1.539965 4.443012 13.412308
  1.546013 4.439734 13.431404
  1.534027 3.650558 13.438110
  1.513666 3.650558 13.412600
  1.522462 4.440365 13.402355
  1.369365 5.745332 13.549083
  1.387397 5.745888 13.558191
  1.369303 6.133390 13.553809
  1.362780 5.750702 13.530836
  1.368977 5.300921 13.548160
  1.386787 5.302358 13.557621
  1.387539 6.133136 13.562604
  1.362486 6.139625 13.535920
  1.362623 5.305398 13.529549
  0.108440 3.436881 14.087274
  0.101183 3.442558 14.105400
  0.097866 3.068517 14.087317
  0.101183 3.442749 14.069149
  0.111965 3.875654 14.087145
  0.104501 3.875270 14.105831
  0.091231 3.091607 14.103637
  0.091231 3.091607 14.070997
  0.104501 3.876037 14.068460
  -0.112013 5.265603 14.087367
  -0.104545 5.262508 14.105589
  -0.112155 5.653862 14.091132
  -0.104545 5.268697 14.069143
  -0.111965 4.821562 14.086456
  -0.104501 4.819644 14.104883
  -0.104678 5.649541 14.109131
  -0.104678 5.658184 14.073133
  -0.104501 4.823480 14.068029
  2.213757 5.747532 13.853726
  2.199867 5.756705 13.838532
  2.218322 5.384288 13.840454
  2.234050 5.756910 13.850560
  2.212502 6.184559 13.857873
  2.198246 6.187747 13.842099
  2.205840 5.410582 13.826688
  2.236658 5.410582 13.837436
  2.233347 6.188570 13.854762
  2.311266 7.681839 13.572453
  2.291757 7.674638 13.574324
  2.302648 8.071052 13.574039
  2.324163 7.681859 13.589411
  2.313210 7.237809 13.572815
  2.293056 7.232026 13.575261
  2.284060 8.062212 13.575172
  2.314633 8.072641 13.591532
  2.326757 7.236421 13.589263
  0.902461 4.479561 15.042903
  0.902806 4.488651 15.024139
  0.909121 4.116052 15.041220
  0.911440 4.488790 15.059355
  0.900585 4.916939 15.043461
  0.901080 4.920138 15.024079
  0.909451 4.142241 15.024323
  0.917311 4.142241 15.056002
  0.909694 4.920690 15.060470
  1.048675 6.410898 15.007233
  1.041569 6.404560 14.990412
  1.046559 6.798430 15.003841
  1.046071 6.410442 15.026381
  1.047798 5.967101 15.008198
  1.039853 5.961843 14.991304
  1.040334 6.790977 14.987104
  1.043087 6.799154 15.022882
  1.046066 5.965498 15.027441
  -1.990381 5.502530 14.305353
  -1.972228 5.504883 14.300376
  -1.986175 5.129467 14.312031
  -2.003074 5.505140 14.319313
  -1.992401 5.942598 14.302769
  -1.973888 5.938708 14.297459
  -1.969734 5.149546 14.307663
  -1.997629 5.149546 14.324609
  -2.005280 5.939737 14.317322
  -1.908786 7.231055 14.437572
  -1.897657 7.230969 14.421814
  -1.901197 7.618755 14.434139
  -1.925714 7.237709 14.444060
  -1.910171 6.787220 14.439613
  -1.898181 6.788499 14.424379
  -1.891180 7.617106 14.417858
  -1.917079 7.626901 14.441175
  -1.927891 6.792585 14.445580
  0.628098 3.448194 14.007405
  0.624462 3.453300 14.026346
  0.618577 3.078977 14.008971
  0.618702 3.453481 13.990552
  0.631341 3.887286 14.006766
  0.627644 3.886333 14.026289
  0.615201 3.101539 14.026040
  0.610037 3.101539 13.993813
  0.621634 3.887056 13.989392
  0.431084 5.260232 14.039379
  0.441053 5.257982 14.056308
  0.431747 5.649027 14.043415
  0.434512 5.263656 14.020290
  0.430663 4.815822 14.038357
  0.440522 4.814658 14.055489
  0.441815 5.645625 14.060105
  0.435041 5.653622 14.024546
  0.434211 4.818157 14.019073
  -0.934165 3.639976 13.534102
  -0.938746 3.650503 13.552641
  -0.942604 3.278582 13.534825
  -0.941460 3.650652 13.516504
  -0.931904 4.076617 13.533770
  -0.936871 4.081275 13.552870
  -0.946732 3.306092 13.551525
  -0.949325 3.306091 13.518991
  -0.939176 4.081873 13.515623
  -1.123624 5.613355 13.546251
  -1.119793 5.605162 13.563328
  -1.124140 5.998385 13.548470
  -1.115062 5.611831 13.528393
  -1.120797 5.170673 13.546365
  -1.115475 5.163707 13.563896
  -1.122052 5.988902 13.564992
  -1.113970 5.998226 13.531335
  -1.113746 5.167840 13.527959
  -2.057091 4.365265 13.017744
  -2.075768 4.379402 13.024940
  -2.065907 4.008902 13.009254
  -2.050564 4.379436 12.998842
  -2.054245 4.800608 13.020475
  -2.073560 4.809159 13.027894
  -2.082784 4.039656 13.015654
  -2.060137 4.039656 12.992151
  -2.047429 4.809295 13.001011
  -2.240828 6.455648 12.841606
  -2.248131 6.446394 12.860518
  -2.234473 6.849616 12.851185
  -2.221031 6.447709 12.834755
  -2.242542 6.008165 12.838873
  -2.249656 5.999107 12.857999
  -2.241921 6.840296 12.869933
  -2.214624 6.841771 12.844450
  -2.222911 6.000008 12.831815
  -2.309448 5.852206 13.579390
  -2.289159 5.854366 13.582555
  -2.304667 5.478778 13.592876
  -2.323334 5.854586 13.594585
  -2.311352 6.292558 13.574598
  -2.290524 6.288518 13.577701
  -2.286331 5.498665 13.595896
  -2.317149 5.498665 13.606643
  -2.325590 6.289397 13.590380
  -2.212081 7.574124 13.854902
  -2.199057 7.574307 13.838020
  -2.203626 7.962307 13.853456
  -2.231717 7.581124 13.852955
  -2.214100 7.130229 13.856215
  -2.200466 7.131757 13.839808
  -2.191499 7.960940 13.836094
  -2.222355 7.970922 13.852189
  -2.234340 7.135873 13.853727
  -2.213757 5.747532 13.853726
  -2.199867 5.756705 13.838532
  -2.212502 6.184559 13.857873
  -2.234050 5.756910 13.850560
  -2.218322 5.384288 13.840454
  -2.205840 5.410582 13.826688
  -2.198246 6.187747 13.842099
  -2.233347 6.188570 13.854762
  -2.236658 5.410582 13.837436
  -2.311266 7.681839 13.572453
  -2.291757 7.674638 13.574324
  -2.313210 7.237809 13.572815
  -2.324163 7.681860 13.589412
  -2.302648 8.071052 13.574039
  -2.284061 8.062212 13.575173
  -2.293056 7.232026 13.575260
  -2.326757 7.236421 13.589263
  -2.314633 8.072641 13.591532
  -2.238630 4.615754 12.842810
  -2.245162 4.613122 12.861706
  -2.241732 5.059175 12.839794
  -2.219949 4.613168 12.835619
  -2.229729 4.234983 12.851395
  -2.235500 4.250410 12.868498
  -2.248565 5.050467 12.859236
  -2.222400 5.050647 12.832397
  -2.212852 4.250410 12.844995
  -2.053416 6.197737 13.022533
  -2.073074 6.205859 13.029556
  -2.054797 5.749938 13.019880
  -2.046251 6.206809 13.003448
  -2.048444 6.592138 13.031382
  -2.068100 6.600238 13.038347
  -2.074342 5.758208 13.027048
  -2.047769 5.758883 13.000647
  -2.041189 6.601205 13.012403
  -1.111607 3.784315 13.548162
  -1.104346 3.785154 13.565741
  -1.115485 4.225329 13.548073
  -1.106993 3.785361 13.529644
  -1.102630 3.408943 13.547581
  -1.095908 3.427615 13.563416
  -1.108347 4.219959 13.566141
  -1.110384 4.220786 13.529049
  -1.098501 3.427614 13.530881
  -0.937715 5.467596 13.534525
  -0.945241 5.470005 13.552982
  -0.935213 5.023679 13.533223
  -0.942582 5.474904 13.516849
  -0.940255 5.853755 13.539247
  -0.949086 5.855050 13.557154
  -0.941597 5.027085 13.552017
  -0.941202 5.030072 13.515306
  -0.943683 5.862102 13.521953
  0.433351 3.430964 14.038614
  0.442748 3.437226 14.055469
  0.430262 3.869529 14.039001
  0.436988 3.437401 14.019671
  0.442822 3.063417 14.037133
  0.451361 3.087035 14.052292
  0.439968 3.869771 14.056379
  0.433960 3.870471 14.019474
  0.446198 3.087035 14.020065
  0.632020 5.277829 14.006968
  0.628600 5.274314 14.026025
  0.631757 4.833403 14.006062
  0.622045 5.280171 13.990070
  0.632185 5.666931 14.010740
  0.628901 5.662215 14.029567
  0.628214 4.831009 14.025325
