
35290            

4     13571 800 830 13579 
4     13579 830 828 13580 
4     13564 13571 13579 13575 
4     13575 13579 13580 13578 
4     824 13581 13582 825 
4     13581 13583 13584 13582 
4     825 13582 13580 828 
4     13582 13584 13578 13580 
4     13585 13586 13587 13588 
4     13588 13587 13577 13576 
4     13583 13585 13588 13584 
4     13584 13588 13576 13578 
4     13435 13589 13590 13436 
4     13589 13591 13592 13590 
4     13436 13590 13593 13438 
4     13590 13592 13594 13593 
4     13595 13586 13585 13596 
4     13596 13585 13583 13597 
4     13591 13595 13596 13592 
4     13592 13596 13597 13594 
4     824 842 13598 13581 
4     842 840 13599 13598 
4     13581 13598 13597 13583 
4     13598 13599 13594 13597 
4     838 668 13441 13600 
4     13600 13441 13438 13593 
4     840 838 13600 13599 
4     13599 13600 13593 13594 
4     13435 13434 13601 13602 
4     13434 13429 13603 13601 
4     13602 13601 13604 13605 
4     13601 13603 13606 13604 
4     13426 13425 13607 13608 
4     13608 13607 13609 13610 
4     13429 13426 13608 13603 
4     13603 13608 13610 13606 
4     13611 13612 13613 13614 
4     13612 13605 13604 13613 
4     13614 13613 13610 13609 
4     13613 13604 13606 13610 
4     13455 13454 13615 13616 
4     13454 13449 13617 13615 
4     13616 13615 13618 13619 
4     13615 13617 13620 13618 
4     13446 13445 13621 13622 
4     13622 13621 13623 13624 
4     13449 13446 13622 13617 
4     13617 13622 13624 13620 
4     13611 13625 13626 13627 
4     13625 13619 13618 13626 
4     13627 13626 13624 13623 
4     13626 13618 13620 13624 
4     13465 13468 13628 13629 
4     13468 13472 13630 13628 
4     13629 13628 13631 13632 
4     13628 13630 13633 13631 
4     13479 13455 13616 13634 
4     13634 13616 13619 13635 
4     13472 13479 13634 13630 
4     13630 13634 13635 13633 
4     13611 13636 13637 13625 
4     13636 13632 13631 13637 
4     13625 13637 13635 13619 
4     13637 13631 13633 13635 
4     13425 13482 13638 13607 
4     13482 13485 13639 13638 
4     13607 13638 13640 13609 
4     13638 13639 13641 13640 
4     13491 13465 13629 13642 
4     13642 13629 13632 13643 
4     13485 13491 13642 13639 
4     13639 13642 13643 13641 
4     13611 13614 13644 13636 
4     13614 13609 13640 13644 
4     13636 13644 13643 13632 
4     13644 13640 13641 13643 
4     13445 13502 13645 13621 
4     13502 13497 13646 13645 
4     13621 13645 13647 13623 
4     13645 13646 13648 13647 
4     13494 13493 13649 13650 
4     13650 13649 13651 13652 
4     13497 13494 13650 13646 
4     13646 13650 13652 13648 
4     13611 13627 13653 13654 
4     13627 13623 13647 13653 
4     13654 13653 13652 13651 
4     13653 13647 13648 13652 
4     13519 13518 13655 13656 
4     13518 13513 13657 13655 
4     13656 13655 13658 13659 
4     13655 13657 13660 13658 
4     13510 13509 13661 13662 
4     13662 13661 13663 13664 
4     13513 13510 13662 13657 
4     13657 13662 13664 13660 
4     13611 13665 13666 13667 
4     13665 13659 13658 13666 
4     13667 13666 13664 13663 
4     13666 13658 13660 13664 
4     13493 13538 13668 13649 
4     13538 13533 13669 13668 
4     13649 13668 13670 13651 
4     13668 13669 13671 13670 
4     13530 13529 13672 13673 
4     13673 13672 13674 13675 
4     13533 13530 13673 13669 
4     13669 13673 13675 13671 
4     13611 13654 13676 13677 
4     13654 13651 13670 13676 
4     13677 13676 13675 13674 
4     13676 13670 13671 13675 
4     13529 13551 13678 13672 
4     13551 13547 13679 13678 
4     13672 13678 13680 13674 
4     13678 13679 13681 13680 
4     13545 13519 13656 13682 
4     13682 13656 13659 13683 
4     13547 13545 13682 13679 
4     13679 13682 13683 13681 
4     13611 13677 13684 13665 
4     13677 13674 13680 13684 
4     13665 13684 13683 13659 
4     13684 13680 13681 13683 
4     13509 13566 13685 13661 
4     13566 13561 13686 13685 
4     13661 13685 13687 13663 
4     13685 13686 13688 13687 
4     13558 13557 13689 13690 
4     13690 13689 13691 13692 
4     13561 13558 13690 13686 
4     13686 13690 13692 13688 
4     13611 13667 13693 13694 
4     13667 13663 13687 13693 
4     13694 13693 13692 13691 
4     13693 13687 13688 13692 
4     13557 13574 13695 13689 
4     13574 13577 13696 13695 
4     13689 13695 13697 13691 
4     13695 13696 13698 13697 
4     13587 13586 13699 13700 
4     13700 13699 13701 13702 
4     13577 13587 13700 13696 
4     13696 13700 13702 13698 
4     13611 13694 13703 13704 
4     13694 13691 13697 13703 
4     13704 13703 13702 13701 
4     13703 13697 13698 13702 
4     13586 13595 13705 13699 
4     13595 13591 13706 13705 
4     13699 13705 13707 13701 
4     13705 13706 13708 13707 
4     13589 13435 13602 13709 
4     13709 13602 13605 13710 
4     13591 13589 13709 13706 
4     13706 13709 13710 13708 
4     13611 13704 13711 13612 
4     13704 13701 13707 13711 
4     13612 13711 13710 13605 
4     13711 13707 13708 13710 
4     13712 13713 13714 13715 
4     13713 13716 13717 13714 
4     13715 13714 13718 13719 
4     13714 13717 13720 13718 
4     13721 13722 13723 13724 
4     13724 13723 13725 13726 
4     13716 13721 13724 13717 
4     13717 13724 13726 13720 
4     13727 13728 13729 13730 
4     13728 13731 13732 13729 
4     13730 13729 13726 13725 
4     13729 13732 13720 13726 
4     13733 13734 13735 13736 
4     13736 13735 13719 13718 
4     13731 13733 13736 13732 
4     13732 13736 13718 13720 
4     13737 13738 13739 13740 
4     13738 13741 13742 13739 
4     13740 13739 13743 13744 
4     13739 13742 13745 13743 
4     13746 13747 13748 13749 
4     13749 13748 13750 13751 
4     13741 13746 13749 13742 
4     13742 13749 13751 13745 
4     3742 3741 13752 13753 
4     3741 3739 13754 13752 
4     13753 13752 13751 13750 
4     13752 13754 13745 13751 
4     3736 3735 13755 13756 
4     13756 13755 13744 13743 
4     3739 3736 13756 13754 
4     13754 13756 13743 13745 
4     13757 13758 13759 13760 
4     13758 13761 13762 13759 
4     13760 13759 13763 13764 
4     13759 13762 13765 13763 
4     13766 13737 13740 13767 
4     13767 13740 13744 13768 
4     13761 13766 13767 13762 
4     13762 13767 13768 13765 
4     3735 3759 13769 13755 
4     3759 3757 13770 13769 
4     13755 13769 13768 13744 
4     13769 13770 13765 13768 
4     3754 3753 13771 13772 
4     13772 13771 13764 13763 
4     3757 3754 13772 13770 
4     13770 13772 13763 13765 
4     13773 13774 13775 13776 
4     13774 13777 13778 13775 
4     13776 13775 13779 13780 
4     13775 13778 13781 13779 
4     13782 13757 13760 13783 
4     13783 13760 13764 13784 
4     13777 13782 13783 13778 
4     13778 13783 13784 13781 
4     3753 3774 13785 13771 
4     3774 3771 13786 13785 
4     13771 13785 13784 13764 
4     13785 13786 13781 13784 
4     3769 3768 13787 13788 
4     13788 13787 13780 13779 
4     3771 3769 13788 13786 
4     13786 13788 13779 13781 
4     13789 13790 13791 13792 
4     13790 13793 13794 13791 
4     13792 13791 13795 13796 
4     13791 13794 13797 13795 
4     13798 13773 13776 13799 
4     13799 13776 13780 13800 
4     13793 13798 13799 13794 
4     13794 13799 13800 13797 
4     3768 3790 13801 13787 
4     3790 3787 13802 13801 
4     13787 13801 13800 13780 
4     13801 13802 13797 13800 
4     3785 3784 13803 13804 
4     13804 13803 13796 13795 
4     3787 3785 13804 13802 
4     13802 13804 13795 13797 
4     13805 13806 13807 13808 
4     13806 13809 13810 13807 
4     13808 13807 13811 13812 
4     13807 13810 13813 13811 
4     13814 13789 13792 13815 
4     13815 13792 13796 13816 
4     13809 13814 13815 13810 
4     13810 13815 13816 13813 
4     3784 3806 13817 13803 
4     3806 3803 13818 13817 
4     13803 13817 13816 13796 
4     13817 13818 13813 13816 
4     3801 3800 13819 13820 
4     13820 13819 13812 13811 
4     3803 3801 13820 13818 
4     13818 13820 13811 13813 
4     13805 13808 13821 13822 
4     13808 13812 13823 13821 
4     13822 13821 13824 13825 
4     13821 13823 13826 13824 
4     13819 3800 3946 13827 
4     13827 3946 3943 13828 
4     13812 13819 13827 13823 
4     13823 13827 13828 13826 
4     3929 13829 13830 3941 
4     13829 13831 13832 13830 
4     3941 13830 13828 3943 
4     13830 13832 13826 13828 
4     13833 13834 13835 13836 
4     13836 13835 13825 13824 
4     13831 13833 13836 13832 
4     13832 13836 13824 13826 
4     13837 13838 13839 13840 
4     13838 13841 13842 13839 
4     13840 13839 13843 13844 
4     13839 13842 13845 13843 
4     13846 13834 13833 13847 
4     13847 13833 13831 13848 
4     13841 13846 13847 13842 
4     13842 13847 13848 13845 
4     3929 3932 13849 13829 
4     3932 3927 13850 13849 
4     13829 13849 13848 13831 
4     13849 13850 13845 13848 
4     3925 3918 13851 13852 
4     13852 13851 13844 13843 
4     3927 3925 13852 13850 
4     13850 13852 13843 13845 
4     13853 13854 13855 13856 
4     13854 13857 13858 13855 
4     13856 13855 13859 13860 
4     13855 13858 13861 13859 
4     13862 13837 13840 13863 
4     13863 13840 13844 13864 
4     13857 13862 13863 13858 
4     13858 13863 13864 13861 
4     3918 3917 13865 13851 
4     3917 3915 13866 13865 
4     13851 13865 13864 13844 
4     13865 13866 13861 13864 
4     3913 3902 13867 13868 
4     13868 13867 13860 13859 
4     3915 3913 13868 13866 
4     13866 13868 13859 13861 
4     13869 13870 13871 13872 
4     13870 13873 13874 13871 
4     13872 13871 13875 13876 
4     13871 13874 13877 13875 
4     13878 13853 13856 13879 
4     13879 13856 13860 13880 
4     13873 13878 13879 13874 
4     13874 13879 13880 13877 
4     3902 3901 13881 13867 
4     3901 3899 13882 13881 
4     13867 13881 13880 13860 
4     13881 13882 13877 13880 
4     3897 3881 13883 13884 
4     13884 13883 13876 13875 
4     3899 3897 13884 13882 
4     13882 13884 13875 13877 
4     13869 13872 13885 13886 
4     13872 13876 13887 13885 
4     13886 13885 13888 13889 
4     13885 13887 13890 13888 
4     13883 3881 3884 13891 
4     13891 3884 3879 13892 
4     13876 13883 13891 13887 
4     13887 13891 13892 13890 
4     3865 13893 13894 3877 
4     13893 13895 13896 13894 
4     3877 13894 13892 3879 
4     13894 13896 13890 13892 
4     13897 13898 13899 13900 
4     13900 13899 13889 13888 
4     13895 13897 13900 13896 
4     13896 13900 13888 13890 
4     13898 13897 13901 13902 
4     13897 13895 13903 13901 
4     13902 13901 13904 13905 
4     13901 13903 13906 13904 
4     13893 3865 3868 13907 
4     13907 3868 3863 13908 
4     13895 13893 13907 13903 
4     13903 13907 13908 13906 
4     3849 13909 13910 3861 
4     13909 13911 13912 13910 
4     3861 13910 13908 3863 
4     13910 13912 13906 13908 
4     13913 13914 13915 13916 
4     13916 13915 13905 13904 
4     13911 13913 13916 13912 
4     13912 13916 13904 13906 
4     13914 13913 13917 13918 
4     13913 13911 13919 13917 
4     13918 13917 13920 13921 
4     13917 13919 13922 13920 
4     13909 3849 3852 13923 
4     13923 3852 3847 13924 
4     13911 13909 13923 13919 
4     13919 13923 13924 13922 
4     3821 13925 13926 3845 
4     13925 13927 13928 13926 
4     3845 13926 13924 3847 
4     13926 13928 13922 13924 
4     13929 13930 13931 13932 
4     13932 13931 13921 13920 
4     13927 13929 13932 13928 
4     13928 13932 13920 13922 
4     13933 13934 13935 13936 
4     13934 13937 13938 13935 
4     13936 13935 13939 13940 
4     13935 13938 13941 13939 
4     13942 13930 13929 13943 
4     13943 13929 13927 13944 
4     13937 13942 13943 13938 
4     13938 13943 13944 13941 
4     3821 3824 13945 13925 
4     3824 3819 13946 13945 
4     13925 13945 13944 13927 
4     13945 13946 13941 13944 
4     3817 3816 13947 13948 
4     13948 13947 13940 13939 
4     3819 3817 13948 13946 
4     13946 13948 13939 13941 
4     13747 13949 13950 13748 
4     13949 13951 13952 13950 
4     13748 13950 13953 13750 
4     13950 13952 13954 13953 
4     13955 13933 13936 13956 
4     13956 13936 13940 13957 
4     13951 13955 13956 13952 
4     13952 13956 13957 13954 
4     3816 3838 13958 13947 
4     3838 3835 13959 13958 
4     13947 13958 13957 13940 
4     13958 13959 13954 13957 
4     3833 3742 13753 13960 
4     13960 13753 13750 13953 
4     3835 3833 13960 13959 
4     13959 13960 13953 13954 
4     13712 13961 13962 13713 
4     13961 13963 13964 13962 
4     13713 13962 13965 13716 
4     13962 13964 13966 13965 
4     13967 13747 13746 13968 
4     13968 13746 13741 13969 
4     13963 13967 13968 13964 
4     13964 13968 13969 13966 
4     13737 13970 13971 13738 
4     13970 13972 13973 13971 
4     13738 13971 13969 13741 
4     13971 13973 13966 13969 
4     13974 13722 13721 13975 
4     13975 13721 13716 13965 
4     13972 13974 13975 13973 
4     13973 13975 13965 13966 
4     13722 13974 13976 13977 
4     13974 13972 13978 13976 
4     13977 13976 13979 13980 
4     13976 13978 13981 13979 
4     13970 13737 13766 13982 
4     13982 13766 13761 13983 
4     13972 13970 13982 13978 
4     13978 13982 13983 13981 
4     13757 13984 13985 13758 
4     13984 13986 13987 13985 
4     13758 13985 13983 13761 
4     13985 13987 13981 13983 
4     13988 13989 13990 13991 
4     13991 13990 13980 13979 
4     13986 13988 13991 13987 
4     13987 13991 13979 13981 
4     13989 13988 13992 13993 
4     13988 13986 13994 13992 
4     13993 13992 13995 13996 
4     13992 13994 13997 13995 
4     13984 13757 13782 13998 
4     13998 13782 13777 13999 
4     13986 13984 13998 13994 
4     13994 13998 13999 13997 
4     13773 14000 14001 13774 
4     14000 14002 14003 14001 
4     13774 14001 13999 13777 
4     14001 14003 13997 13999 
4     14004 14005 14006 14007 
4     14007 14006 13996 13995 
4     14002 14004 14007 14003 
4     14003 14007 13995 13997 
4     14005 14004 14008 14009 
4     14004 14002 14010 14008 
4     14009 14008 14011 14012 
4     14008 14010 14013 14011 
4     14000 13773 13798 14014 
4     14014 13798 13793 14015 
4     14002 14000 14014 14010 
4     14010 14014 14015 14013 
4     13789 14016 14017 13790 
4     14016 14018 14019 14017 
4     13790 14017 14015 13793 
4     14017 14019 14013 14015 
4     14020 14021 14022 14023 
4     14023 14022 14012 14011 
4     14018 14020 14023 14019 
4     14019 14023 14011 14013 
4     14021 14020 14024 14025 
4     14020 14018 14026 14024 
4     14025 14024 14027 14028 
4     14024 14026 14029 14027 
4     14016 13789 13814 14030 
4     14030 13814 13809 14031 
4     14018 14016 14030 14026 
4     14026 14030 14031 14029 
4     13805 14032 14033 13806 
4     14032 14034 14035 14033 
4     13806 14033 14031 13809 
4     14033 14035 14029 14031 
4     14036 14037 14038 14039 
4     14039 14038 14028 14027 
4     14034 14036 14039 14035 
4     14035 14039 14027 14029 
4     14037 14036 14040 14041 
4     14036 14034 14042 14040 
4     14041 14040 14043 14044 
4     14040 14042 14045 14043 
4     14032 13805 13822 14046 
4     14046 13822 13825 14047 
4     14034 14032 14046 14042 
4     14042 14046 14047 14045 
4     13834 14048 14049 13835 
4     14048 14050 14051 14049 
4     13835 14049 14047 13825 
4     14049 14051 14045 14047 
4     14052 14053 14054 14055 
4     14055 14054 14044 14043 
4     14050 14052 14055 14051 
4     14051 14055 14043 14045 
4     14053 14052 14056 14057 
4     14052 14050 14058 14056 
4     14057 14056 14059 14060 
4     14056 14058 14061 14059 
4     14048 13834 13846 14062 
4     14062 13846 13841 14063 
4     14050 14048 14062 14058 
4     14058 14062 14063 14061 
4     13837 13862 14064 13838 
4     13862 13857 14065 14064 
4     13838 14064 14063 13841 
4     14064 14065 14061 14063 
4     13854 13853 14066 14067 
4     14067 14066 14060 14059 
4     13857 13854 14067 14065 
4     14065 14067 14059 14061 
4     14068 14069 14070 14071 
4     14069 14072 14073 14070 
4     14071 14070 14074 14075 
4     14070 14073 14076 14074 
4     14077 14053 14057 14078 
4     14078 14057 14060 14079 
4     14072 14077 14078 14073 
4     14073 14078 14079 14076 
4     13853 13878 14080 14066 
4     13878 13873 14081 14080 
4     14066 14080 14079 14060 
4     14080 14081 14076 14079 
4     13870 13869 14082 14083 
4     14083 14082 14075 14074 
4     13873 13870 14083 14081 
4     14081 14083 14074 14076 
4     14084 14085 14086 14087 
4     14085 14088 14089 14086 
4     14087 14086 14090 14091 
4     14086 14089 14092 14090 
4     14093 14068 14071 14094 
4     14094 14071 14075 14095 
4     14088 14093 14094 14089 
4     14089 14094 14095 14092 
4     13869 13886 14096 14082 
4     13886 13889 14097 14096 
4     14082 14096 14095 14075 
4     14096 14097 14092 14095 
4     13899 13898 14098 14099 
4     14099 14098 14091 14090 
4     13889 13899 14099 14097 
4     14097 14099 14090 14092 
4     13734 14100 14101 14102 
4     14100 14103 14104 14101 
4     14102 14101 14105 14106 
4     14101 14104 14107 14105 
4     14108 14084 14087 14109 
4     14109 14087 14091 14110 
4     14103 14108 14109 14104 
4     14104 14109 14110 14107 
4     13898 13902 14111 14098 
4     13902 13905 14112 14111 
4     14098 14111 14110 14091 
4     14111 14112 14107 14110 
4     13915 13914 14113 14114 
4     14114 14113 14106 14105 
4     13905 13915 14114 14112 
4     14112 14114 14105 14107 
4     13734 14102 14115 13735 
4     14102 14106 14116 14115 
4     13735 14115 14117 13719 
4     14115 14116 14118 14117 
4     14113 13914 13918 14119 
4     14119 13918 13921 14120 
4     14106 14113 14119 14116 
4     14116 14119 14120 14118 
4     13930 14121 14122 13931 
4     14121 14123 14124 14122 
4     13931 14122 14120 13921 
4     14122 14124 14118 14120 
4     14125 13712 13715 14126 
4     14126 13715 13719 14117 
4     14123 14125 14126 14124 
4     14124 14126 14117 14118 
4     13712 14125 14127 13961 
4     14125 14123 14128 14127 
4     13961 14127 14129 13963 
4     14127 14128 14130 14129 
4     14121 13930 13942 14131 
4     14131 13942 13937 14132 
4     14123 14121 14131 14128 
4     14128 14131 14132 14130 
4     13933 13955 14133 13934 
4     13955 13951 14134 14133 
4     13934 14133 14132 13937 
4     14133 14134 14130 14132 
4     13949 13747 13967 14135 
4     14135 13967 13963 14129 
4     13951 13949 14135 14134 
4     14134 14135 14129 14130 
4     14136 14137 14138 14139 
4     14137 14140 14141 14138 
4     14139 14138 14142 14143 
4     14138 14141 14144 14142 
4     14145 14021 14025 14146 
4     14146 14025 14028 14147 
4     14140 14145 14146 14141 
4     14141 14146 14147 14144 
4     14037 14148 14149 14038 
4     14148 14150 14151 14149 
4     14038 14149 14147 14028 
4     14149 14151 14144 14147 
4     14152 14153 14154 14155 
4     14155 14154 14143 14142 
4     14150 14152 14155 14151 
4     14151 14155 14142 14144 
4     13727 14156 14157 14158 
4     14156 14159 14160 14157 
4     14158 14157 14161 14162 
4     14157 14160 14163 14161 
4     14164 14005 14009 14165 
4     14165 14009 14012 14166 
4     14159 14164 14165 14160 
4     14160 14165 14166 14163 
4     14021 14145 14167 14022 
4     14145 14140 14168 14167 
4     14022 14167 14166 14012 
4     14167 14168 14163 14166 
4     14137 14136 14169 14170 
4     14170 14169 14162 14161 
4     14140 14137 14170 14168 
4     14168 14170 14161 14163 
4     13727 14158 14171 13728 
4     14158 14162 14172 14171 
4     13728 14171 14173 13731 
4     14171 14172 14174 14173 
4     14169 14136 14175 14176 
4     14176 14175 14177 14178 
4     14162 14169 14176 14172 
4     14172 14176 14178 14174 
4     14084 14108 14179 14180 
4     14108 14103 14181 14179 
4     14180 14179 14178 14177 
4     14179 14181 14174 14178 
4     14100 13734 13733 14182 
4     14182 13733 13731 14173 
4     14103 14100 14182 14181 
4     14181 14182 14173 14174 
4     14053 14077 14183 14054 
4     14077 14072 14184 14183 
4     14054 14183 14185 14044 
4     14183 14184 14186 14185 
4     14069 14068 14187 14188 
4     14188 14187 14189 14190 
4     14072 14069 14188 14184 
4     14184 14188 14190 14186 
4     14153 14152 14191 14192 
4     14152 14150 14193 14191 
4     14192 14191 14190 14189 
4     14191 14193 14186 14190 
4     14148 14037 14041 14194 
4     14194 14041 14044 14185 
4     14150 14148 14194 14193 
4     14193 14194 14185 14186 
4     13727 13730 14195 14156 
4     13730 13725 14196 14195 
4     14156 14195 14197 14159 
4     14195 14196 14198 14197 
4     13723 13722 13977 14199 
4     14199 13977 13980 14200 
4     13725 13723 14199 14196 
4     14196 14199 14200 14198 
4     13989 13993 14201 13990 
4     13993 13996 14202 14201 
4     13990 14201 14200 13980 
4     14201 14202 14198 14200 
4     14006 14005 14164 14203 
4     14203 14164 14159 14197 
4     13996 14006 14203 14202 
4     14202 14203 14197 14198 
4     14136 14139 14204 14175 
4     14139 14143 14205 14204 
4     14175 14204 14206 14177 
4     14204 14205 14207 14206 
4     14154 14153 14192 14208 
4     14208 14192 14189 14209 
4     14143 14154 14208 14205 
4     14205 14208 14209 14207 
4     14068 14093 14210 14187 
4     14093 14088 14211 14210 
4     14187 14210 14209 14189 
4     14210 14211 14207 14209 
4     14085 14084 14180 14212 
4     14212 14180 14177 14206 
4     14088 14085 14212 14211 
4     14211 14212 14206 14207 
4     5085 14213 14214 5086 
4     14213 14215 14216 14214 
4     5086 14214 14217 5089 
4     14214 14216 14218 14217 
4     14219 14220 14221 14222 
4     14222 14221 14223 14224 
4     14215 14219 14222 14216 
4     14216 14222 14224 14218 
4     4470 4469 14225 14226 
4     4469 4467 14227 14225 
4     14226 14225 14224 14223 
4     14225 14227 14218 14224 
4     4464 4463 5091 14228 
4     14228 5091 5089 14217 
4     4467 4464 14228 14227 
4     14227 14228 14217 14218 
4     4470 14226 14229 4499 
4     14226 14223 14230 14229 
4     4499 14229 14231 4492 
4     14229 14230 14232 14231 
4     14221 14220 14233 14234 
4     14234 14233 14235 14236 
4     14223 14221 14234 14230 
4     14230 14234 14236 14232 
4     14237 14238 14239 14240 
4     14238 14241 14242 14239 
4     14240 14239 14236 14235 
4     14239 14242 14232 14236 
4     14243 4485 4488 14244 
4     14244 4488 4492 14231 
4     14241 14243 14244 14242 
4     14242 14244 14231 14232 
4     4501 14245 14246 4502 
4     14245 14247 14248 14246 
4     4502 14246 14249 4505 
4     14246 14248 14250 14249 
4     14251 5334 14252 14253 
4     14253 14252 14254 14255 
4     14247 14251 14253 14248 
4     14248 14253 14255 14250 
4     5421 5420 14256 14257 
4     5420 5415 14258 14256 
4     14257 14256 14255 14254 
4     14256 14258 14250 14255 
4     5412 4511 4510 14259 
4     14259 4510 4505 14249 
4     5415 5412 14259 14258 
4     14258 14259 14249 14250 
4     4485 14243 14260 4525 
4     14243 14241 14261 14260 
4     4525 14260 14262 4527 
4     14260 14261 14263 14262 
4     14238 14237 14264 14265 
4     14265 14264 14266 14267 
4     14241 14238 14265 14261 
4     14261 14265 14267 14263 
4     5341 14268 14269 14270 
4     14268 14271 14272 14269 
4     14270 14269 14267 14266 
4     14269 14272 14263 14267 
4     14273 4529 4532 14274 
4     14274 4532 4527 14262 
4     14271 14273 14274 14272 
4     14272 14274 14262 14263 
4     4529 14273 14275 4541 
4     14273 14271 14276 14275 
4     4541 14275 14277 4543 
4     14275 14276 14278 14277 
4     14268 5341 5340 14279 
4     14279 5340 5338 14280 
4     14271 14268 14279 14276 
4     14276 14279 14280 14278 
4     5334 14251 14281 5335 
4     14251 14247 14282 14281 
4     5335 14281 14280 5338 
4     14281 14282 14278 14280 
4     14245 4501 4546 14283 
4     14283 4546 4543 14277 
4     14247 14245 14283 14282 
4     14282 14283 14277 14278 
4     5341 14270 14284 5342 
4     14270 14266 14285 14284 
4     5342 14284 14286 5326 
4     14284 14285 14287 14286 
4     14264 14237 14288 14289 
4     14289 14288 14290 14291 
4     14266 14264 14289 14285 
4     14285 14289 14291 14287 
4     5522 5540 14292 14293 
4     5540 5535 14294 14292 
4     14293 14292 14291 14290 
4     14292 14294 14287 14291 
4     5532 5319 5322 14295 
4     14295 5322 5326 14286 
4     5535 5532 14295 14294 
4     14294 14295 14286 14287 
4     5421 14257 14296 5422 
4     14257 14254 14297 14296 
4     5422 14296 14298 5424 
4     14296 14297 14299 14298 
4     14252 5334 5337 14300 
4     14300 5337 5332 14301 
4     14254 14252 14300 14297 
4     14297 14300 14301 14299 
4     5329 5573 14302 5330 
4     5573 5569 14303 14302 
4     5330 14302 14301 5332 
4     14302 14303 14299 14301 
4     5567 5426 5429 14304 
4     14304 5429 5424 14298 
4     5569 5567 14304 14303 
4     14303 14304 14298 14299 
4     14237 14240 14305 14288 
4     14240 14235 14306 14305 
4     14288 14305 14307 14290 
4     14305 14306 14308 14307 
4     14233 14220 14309 14310 
4     14310 14309 14311 14312 
4     14235 14233 14310 14306 
4     14306 14310 14312 14308 
4     5522 14293 14313 14314 
4     14293 14290 14307 14313 
4     14314 14313 14312 14311 
4     14313 14307 14308 14312 
4     5085 5088 14315 14316 
4     5088 5083 14317 14315 
4     14316 14315 14318 14319 
4     14315 14317 14320 14318 
4     5081 5053 5437 14321 
4     14321 5437 5440 14322 
4     5083 5081 14321 14317 
4     14317 14321 14322 14320 
4     5344 5505 14323 5449 
4     5505 5503 14324 14323 
4     5449 14323 14322 5440 
4     14323 14324 14320 14322 
4     5500 5499 14325 14326 
4     14326 14325 14319 14318 
4     5503 5500 14326 14324 
4     14324 14326 14318 14320 
4     5522 14314 14327 5523 
4     14314 14311 14328 14327 
4     5523 14327 14329 5526 
4     14327 14328 14330 14329 
4     14309 14220 14331 14332 
4     14332 14331 14333 14334 
4     14311 14309 14332 14328 
4     14328 14332 14334 14330 
4     5529 5528 14335 14336 
4     5528 5526 14329 14335 
4     14336 14335 14334 14333 
4     14335 14329 14330 14334 
4     14337 14338 14339 14340 
4     14338 14341 14342 14339 
4     14340 14339 14343 14344 
4     14339 14342 14345 14343 
4     14346 8789 8792 14347 
4     14347 8792 8796 14348 
4     14341 14346 14347 14342 
4     14342 14347 14348 14345 
4     8811 13119 14349 8812 
4     13119 13115 14350 14349 
4     8812 14349 14348 8796 
4     14349 14350 14345 14348 
4     13113 6892 14351 14352 
4     14352 14351 14344 14343 
4     13115 13113 14352 14350 
4     14350 14352 14343 14345 
4     10206 10205 14353 14354 
4     10205 10201 14355 14353 
4     14354 14353 14356 14357 
4     14353 14355 14358 14356 
4     10199 8789 14346 14359 
4     14359 14346 14341 14360 
4     10201 10199 14359 14355 
4     14355 14359 14360 14358 
4     14337 14361 14362 14338 
4     14361 14363 14364 14362 
4     14338 14362 14360 14341 
4     14362 14364 14358 14360 
4     14365 14366 14367 14368 
4     14368 14367 14357 14356 
4     14363 14365 14368 14364 
4     14364 14368 14356 14358 
4     14337 14340 14369 14361 
4     14340 14344 14370 14369 
4     14361 14369 14371 14363 
4     14369 14370 14372 14371 
4     14351 6892 6891 14373 
4     14373 6891 6886 14374 
4     14344 14351 14373 14370 
4     14370 14373 14374 14372 
4     6882 14375 14376 6883 
4     14375 14377 14378 14376 
4     6883 14376 14374 6886 
4     14376 14378 14372 14374 
4     14379 14366 14365 14380 
4     14380 14365 14363 14371 
4     14377 14379 14380 14378 
4     14378 14380 14371 14372 
4     14381 14382 14383 14384 
4     14382 14385 14386 14383 
4     14384 14383 14387 14388 
4     14383 14386 14389 14387 
4     14390 10342 10341 14391 
4     14391 10341 10336 14392 
4     14385 14390 14391 14386 
4     14386 14391 14392 14389 
4     10332 14393 14394 10333 
4     14393 14395 14396 14394 
4     10333 14394 14392 10336 
4     14394 14396 14389 14392 
4     14397 14398 14399 14400 
4     14400 14399 14388 14387 
4     14395 14397 14400 14396 
4     14396 14400 14387 14389 
4     14398 14397 14401 14402 
4     14397 14395 14403 14401 
4     14402 14401 14404 14405 
4     14401 14403 14406 14404 
4     14393 10332 14407 14408 
4     14408 14407 14409 14410 
4     14395 14393 14408 14403 
4     14403 14408 14410 14406 
4     14411 14412 14413 14414 
4     14412 14415 14416 14413 
4     14414 14413 14410 14409 
4     14413 14416 14406 14410 
4     14417 14418 14419 14420 
4     14420 14419 14405 14404 
4     14415 14417 14420 14416 
4     14416 14420 14404 14406 
4     11503 14421 14422 11504 
4     14421 14423 14424 14422 
4     11504 14422 14425 11506 
4     14422 14424 14426 14425 
4     14427 14428 14429 14430 
4     14430 14429 14431 14432 
4     14423 14427 14430 14424 
4     14424 14430 14432 14426 
4     9157 9156 14433 14434 
4     9156 9154 14435 14433 
4     14434 14433 14432 14431 
4     14433 14435 14426 14432 
4     9152 9127 11509 14436 
4     14436 11509 11506 14425 
4     9154 9152 14436 14435 
4     14435 14436 14425 14426 
4     14437 14438 14439 14440 
4     14438 14441 14442 14439 
4     14440 14439 14443 14444 
4     14439 14442 14445 14443 
4     14446 11294 11297 14447 
4     14447 11297 11292 14448 
4     14441 14446 14447 14442 
4     14442 14447 14448 14445 
4     10263 10262 14449 11290 
4     10262 10257 14450 14449 
4     11290 14449 14448 11292 
4     14449 14450 14445 14448 
4     10254 10253 14451 14452 
4     14452 14451 14444 14443 
4     10257 10254 14452 14450 
4     14450 14452 14443 14445 
4     14453 14454 14455 14456 
4     14454 14457 14458 14455 
4     14456 14455 14459 14460 
4     14455 14458 14461 14459 
4     14462 11228 11231 14463 
4     14463 11231 11226 14464 
4     14457 14462 14463 14458 
4     14458 14463 14464 14461 
4     10233 10236 14465 11224 
4     10236 10240 14466 14465 
4     11224 14465 14464 11226 
4     14465 14466 14461 14464 
4     10251 10250 14467 14468 
4     14468 14467 14460 14459 
4     10240 10251 14468 14466 
4     14466 14468 14459 14461 
4     14398 14402 14469 14399 
4     14402 14405 14470 14469 
4     14399 14469 14471 14388 
4     14469 14470 14472 14471 
4     14419 14418 14473 14474 
4     14474 14473 14475 14476 
4     14405 14419 14474 14470 
4     14470 14474 14476 14472 
4     14477 14478 14479 14480 
4     14478 14481 14482 14479 
4     14480 14479 14476 14475 
4     14479 14482 14472 14476 
4     14483 14381 14384 14484 
4     14484 14384 14388 14471 
4     14481 14483 14484 14482 
4     14482 14484 14471 14472 
4     14485 14486 14487 14488 
4     14486 14489 14490 14487 
4     14488 14487 14491 14492 
4     14487 14490 14493 14491 
4     14494 14495 14496 14497 
4     14497 14496 14498 14499 
4     14489 14494 14497 14490 
4     14490 14497 14499 14493 
4     11445 12538 14500 14501 
4     12538 12534 14502 14500 
4     14501 14500 14499 14498 
4     14500 14502 14493 14499 
4     12532 10342 14503 14504 
4     14504 14503 14492 14491 
4     12534 12532 14504 14502 
4     14502 14504 14491 14493 
4     6942 6941 14505 11027 
4     6941 6936 14506 14505 
4     11027 14505 14507 11030 
4     14505 14506 14508 14507 
4     6933 6932 14509 14510 
4     14510 14509 14511 14512 
4     6936 6933 14510 14506 
4     14506 14510 14512 14508 
4     6907 6910 14513 14514 
4     6910 6914 14515 14513 
4     14514 14513 14512 14511 
4     14513 14515 14508 14512 
4     6930 6929 11032 14516 
4     14516 11032 11030 14507 
4     6914 6930 14516 14515 
4     14515 14516 14507 14508 
4     11301 14517 14518 11302 
4     14517 14519 14520 14518 
4     11302 14518 14521 11287 
4     14518 14520 14522 14521 
4     14523 11366 11365 14524 
4     14524 11365 11363 14525 
4     14519 14523 14524 14520 
4     14520 14524 14525 14522 
4     11184 11183 14526 11360 
4     11183 11178 14527 14526 
4     11360 14526 14525 11363 
4     14526 14527 14522 14525 
4     11175 11174 11283 14528 
4     14528 11283 11287 14521 
4     11178 11175 14528 14527 
4     14527 14528 14521 14522 
4     11337 14529 14530 11338 
4     14529 14531 14532 14530 
4     11338 14530 14533 11341 
4     14530 14532 14534 14533 
4     14535 14536 14537 14538 
4     14538 14537 14539 14540 
4     14531 14535 14538 14532 
4     14532 14538 14540 14534 
4     11151 11150 14541 14542 
4     11150 11148 14543 14541 
4     14542 14541 14540 14539 
4     14541 14543 14534 14540 
4     11145 11144 11343 14544 
4     14544 11343 11341 14533 
4     11148 11145 14544 14543 
4     14543 14544 14533 14534 
4     11393 14545 14546 11394 
4     14545 14547 14548 14546 
4     11394 14546 14549 11397 
4     14546 14548 14550 14549 
4     14551 14552 14553 14554 
4     14554 14553 14555 14556 
4     14547 14551 14554 14548 
4     14548 14554 14556 14550 
4     11206 11209 14557 14558 
4     11209 11204 14559 14557 
4     14558 14557 14556 14555 
4     14557 14559 14550 14556 
4     11202 11201 11399 14560 
4     14560 11399 11397 14549 
4     11204 11202 14560 14559 
4     14559 14560 14549 14550 
4     8225 14561 14562 8226 
4     14561 14563 14564 14562 
4     8226 14562 14565 8210 
4     14562 14564 14566 14565 
4     14567 8193 8196 14568 
4     14568 8196 8191 14569 
4     14563 14567 14568 14564 
4     14564 14568 14569 14566 
4     8173 11443 14570 8189 
4     11443 11441 14571 14570 
4     8189 14570 14569 8191 
4     14570 14571 14566 14569 
4     11439 8203 8206 14572 
4     14572 8206 8210 14565 
4     11441 11439 14572 14571 
4     14571 14572 14565 14566 
4     11455 14573 14574 11456 
4     14573 14575 14576 14574 
4     11456 14574 14577 11458 
4     14574 14576 14578 14577 
4     14579 14580 14581 14582 
4     14582 14581 14583 14584 
4     14575 14579 14582 14576 
4     14576 14582 14584 14578 
4     14437 14440 14585 14586 
4     14440 14444 14587 14585 
4     14586 14585 14584 14583 
4     14585 14587 14578 14584 
4     14451 10253 11461 14588 
4     14588 11461 11458 14577 
4     14444 14451 14588 14587 
4     14587 14588 14577 14578 
4     14495 14589 14590 14496 
4     14589 14591 14592 14590 
4     14496 14590 14593 14498 
4     14590 14592 14594 14593 
4     14595 14580 14579 14596 
4     14596 14579 14575 14597 
4     14591 14595 14596 14592 
4     14592 14596 14597 14594 
4     11455 11454 14598 14573 
4     11454 11449 14599 14598 
4     14573 14598 14597 14575 
4     14598 14599 14594 14597 
4     11446 11445 14501 14600 
4     14600 14501 14498 14593 
4     11449 11446 14600 14599 
4     14599 14600 14593 14594 
4     12800 12803 14601 12821 
4     12803 12798 14602 14601 
4     12821 14601 14603 12823 
4     14601 14602 14604 14603 
4     12796 12795 14605 14606 
4     14606 14605 14607 14608 
4     12798 12796 14606 14602 
4     14602 14606 14608 14604 
4     14411 14414 14609 14610 
4     14414 14409 14611 14609 
4     14610 14609 14608 14607 
4     14609 14611 14604 14608 
4     14407 10332 12827 14612 
4     14612 12827 12823 14603 
4     14409 14407 14612 14611 
4     14611 14612 14603 14604 
4     14428 14613 14614 14429 
4     14613 14615 14616 14614 
4     14429 14614 14617 14431 
4     14614 14616 14618 14617 
4     14619 6954 6953 14620 
4     14620 6953 6951 14621 
4     14615 14619 14620 14616 
4     14616 14620 14621 14618 
4     6947 11747 14622 6948 
4     11747 11745 14623 14622 
4     6948 14622 14621 6951 
4     14622 14623 14618 14621 
4     11743 9157 14434 14624 
4     14624 14434 14431 14617 
4     11745 11743 14624 14623 
4     14623 14624 14617 14618 
4     11388 14625 14626 11389 
4     14625 14627 14628 14626 
4     11389 14626 14629 11391 
4     14626 14628 14630 14629 
4     14631 14632 14633 14634 
4     14634 14633 14635 14636 
4     14627 14631 14634 14628 
4     14628 14634 14636 14630 
4     14552 14551 14637 14638 
4     14551 14547 14639 14637 
4     14638 14637 14636 14635 
4     14637 14639 14630 14636 
4     14545 11393 11396 14640 
4     14640 11396 11391 14629 
4     14547 14545 14640 14639 
4     14639 14640 14629 14630 
4     11418 14641 14642 11419 
4     14641 14643 14644 14642 
4     11419 14642 14645 11408 
4     14642 14644 14646 14645 
4     14647 14632 14631 14648 
4     14648 14631 14627 14649 
4     14643 14647 14648 14644 
4     14644 14648 14649 14646 
4     11388 11431 14650 14625 
4     11431 11429 14651 14650 
4     14625 14650 14649 14627 
4     14650 14651 14646 14649 
4     11427 11401 11404 14652 
4     14652 11404 11408 14645 
4     11429 11427 14652 14651 
4     14651 14652 14645 14646 
4     8180 8184 14653 10922 
4     8184 8187 14654 14653 
4     10922 14653 14655 10907 
4     14653 14654 14656 14655 
4     8201 8200 14657 14658 
4     14658 14657 14659 14660 
4     8187 8201 14658 14654 
4     14654 14658 14660 14656 
4     10940 10939 14661 14662 
4     10939 10937 14663 14661 
4     14662 14661 14660 14659 
4     14661 14663 14656 14660 
4     10934 10900 10903 14664 
4     14664 10903 10907 14655 
4     10937 10934 14664 14663 
4     14663 14664 14655 14656 
4     10211 10220 14665 10616 
4     10220 10223 14666 14665 
4     10616 14665 14667 10618 
4     14665 14666 14668 14667 
4     10230 10229 14669 14670 
4     14670 14669 14671 14672 
4     10223 10230 14670 14666 
4     14666 14670 14672 14668 
4     12785 12788 14673 14674 
4     12788 12792 14675 14673 
4     14674 14673 14672 14671 
4     14673 14675 14668 14672 
4     12807 10623 10622 14676 
4     14676 10622 10618 14667 
4     12792 12807 14676 14675 
4     14675 14676 14667 14668 
4     14381 14483 14677 14382 
4     14483 14481 14678 14677 
4     14382 14677 14679 14385 
4     14677 14678 14680 14679 
4     14478 14477 14681 14682 
4     14682 14681 14683 14684 
4     14481 14478 14682 14678 
4     14678 14682 14684 14680 
4     14485 14488 14685 14686 
4     14488 14492 14687 14685 
4     14686 14685 14684 14683 
4     14685 14687 14680 14684 
4     14503 10342 14390 14688 
4     14688 14390 14385 14679 
4     14492 14503 14688 14687 
4     14687 14688 14679 14680 
4     2544 2547 14689 14690 
4     2547 2542 14691 14689 
4     14690 14689 14692 14693 
4     14689 14691 14694 14692 
4     2540 2539 2575 14695 
4     14695 2575 2573 14696 
4     2542 2540 14695 14691 
4     14691 14695 14696 14694 
4     2569 14697 14698 2570 
4     14697 14699 14700 14698 
4     2570 14698 14696 2573 
4     14698 14700 14694 14696 
4     14701 14702 14703 14704 
4     14704 14703 14693 14692 
4     14699 14701 14704 14700 
4     14700 14704 14692 14694 
4     14705 14706 14707 14708 
4     14706 14709 14710 14707 
4     14708 14707 14711 14712 
4     14707 14710 14713 14711 
4     14714 14715 14716 14717 
4     14717 14716 14718 14719 
4     14709 14714 14717 14710 
4     14710 14717 14719 14713 
4     14720 14721 14722 14723 
4     14721 14724 14725 14722 
4     14723 14722 14719 14718 
4     14722 14725 14713 14719 
4     14726 14727 14728 14729 
4     14729 14728 14712 14711 
4     14724 14726 14729 14725 
4     14725 14729 14711 14713 
4     14702 14701 14730 14731 
4     14701 14699 14732 14730 
4     14731 14730 14733 14734 
4     14730 14732 14735 14733 
4     14697 2569 2650 14736 
4     14736 2650 2647 14737 
4     14699 14697 14736 14732 
4     14732 14736 14737 14735 
4     2644 3151 14738 2645 
4     3151 3149 14739 14738 
4     2645 14738 14737 2647 
4     14738 14739 14735 14737 
4     3146 3145 14740 14741 
4     14741 14740 14734 14733 
4     3149 3146 14741 14739 
4     14739 14741 14733 14735 
4     14742 14743 14744 14745 
4     14743 14746 14747 14744 
4     14745 14744 14748 14749 
4     14744 14747 14750 14748 
4     14751 14752 14753 14754 
4     14754 14753 14755 14756 
4     14746 14751 14754 14747 
4     14747 14754 14756 14750 
4     14757 14758 14759 14760 
4     14758 14761 14762 14759 
4     14760 14759 14756 14755 
4     14759 14762 14750 14756 
4     14763 14764 14765 14766 
4     14766 14765 14749 14748 
4     14761 14763 14766 14762 
4     14762 14766 14748 14750 
4     14727 14767 14768 14728 
4     14767 14769 14770 14768 
4     14728 14768 14771 14712 
4     14768 14770 14772 14771 
4     14773 14774 14775 14776 
4     14776 14775 14777 14778 
4     14769 14773 14776 14770 
4     14770 14776 14778 14772 
4     14779 14780 14781 14782 
4     14780 14783 14784 14781 
4     14782 14781 14778 14777 
4     14781 14784 14772 14778 
4     14785 14705 14708 14786 
4     14786 14708 14712 14771 
4     14783 14785 14786 14784 
4     14784 14786 14771 14772 
4     14787 14788 14789 14790 
4     14788 14791 14792 14789 
4     14790 14789 14793 14794 
4     14789 14792 14795 14793 
4     14796 14797 14798 14799 
4     14799 14798 14800 14801 
4     14791 14796 14799 14792 
4     14792 14799 14801 14795 
4     14802 14803 14804 14805 
4     14803 14806 14807 14804 
4     14805 14804 14801 14800 
4     14804 14807 14795 14801 
4     14808 14809 14810 14811 
4     14811 14810 14794 14793 
4     14806 14808 14811 14807 
4     14807 14811 14793 14795 
4     12315 12314 14812 14813 
4     12314 12310 14814 14812 
4     14813 14812 14815 14816 
4     14812 14814 14817 14815 
4     12308 2476 12352 14818 
4     14818 12352 12355 14819 
4     12310 12308 14818 14814 
4     14814 14818 14819 14817 
4     2529 2532 14820 12361 
4     2532 2536 14821 14820 
4     12361 14820 14819 12355 
4     14820 14821 14817 14819 
4     2552 2551 14822 14823 
4     14823 14822 14816 14815 
4     2536 2552 14823 14821 
4     14821 14823 14815 14817 
4     14787 14824 14825 14826 
4     14824 14827 14828 14825 
4     14826 14825 14829 14830 
4     14825 14828 14831 14829 
4     14832 14833 14834 14835 
4     14835 14834 14836 14837 
4     14827 14832 14835 14828 
4     14828 14835 14837 14831 
4     14757 14838 14839 14840 
4     14838 14841 14842 14839 
4     14840 14839 14837 14836 
4     14839 14842 14831 14837 
4     14843 14844 14845 14846 
4     14846 14845 14830 14829 
4     14841 14843 14846 14842 
4     14842 14846 14829 14831 
4     14847 14848 14849 14850 
4     14848 14851 14852 14849 
4     14850 14849 14853 14854 
4     14849 14852 14855 14853 
4     14856 14857 14858 14859 
4     14859 14858 14860 14861 
4     14851 14856 14859 14852 
4     14852 14859 14861 14855 
4     14862 14863 14864 14865 
4     14863 14866 14867 14864 
4     14865 14864 14861 14860 
4     14864 14867 14855 14861 
4     14868 14869 14870 14871 
4     14871 14870 14854 14853 
4     14866 14868 14871 14867 
4     14867 14871 14853 14855 
4     2551 2550 14872 14873 
4     2550 2548 14874 14872 
4     14873 14872 14875 14876 
4     14872 14874 14877 14875 
4     2545 2544 14878 14879 
4     14879 14878 14880 14881 
4     2548 2545 14879 14874 
4     14874 14879 14881 14877 
4     14742 14745 14882 14883 
4     14745 14749 14884 14882 
4     14883 14882 14881 14880 
4     14882 14884 14877 14881 
4     14765 14764 14885 14886 
4     14886 14885 14876 14875 
4     14749 14765 14886 14884 
4     14884 14886 14875 14877 
4     12315 14887 14888 12316 
4     14887 14889 14890 14888 
4     12316 14888 14891 12318 
4     14888 14890 14892 14891 
4     14893 14757 14840 14894 
4     14894 14840 14836 14895 
4     14889 14893 14894 14890 
4     14890 14894 14895 14892 
4     14833 14896 14897 14834 
4     14896 14898 14899 14897 
4     14834 14897 14895 14836 
4     14897 14899 14892 14895 
4     14900 2611 12321 14901 
4     14901 12321 12318 14891 
4     14898 14900 14901 14899 
4     14899 14901 14891 14892 
4     14757 14893 14902 14758 
4     14893 14889 14903 14902 
4     14758 14902 14904 14761 
4     14902 14903 14905 14904 
4     14887 12315 14813 14906 
4     14906 14813 14816 14907 
4     14889 14887 14906 14903 
4     14903 14906 14907 14905 
4     2551 14873 14908 14822 
4     14873 14876 14909 14908 
4     14822 14908 14907 14816 
4     14908 14909 14905 14907 
4     14885 14764 14763 14910 
4     14910 14763 14761 14904 
4     14876 14885 14910 14909 
4     14909 14910 14904 14905 
4     2611 14900 14911 2612 
4     14900 14898 14912 14911 
4     2612 14911 14913 2601 
4     14911 14912 14914 14913 
4     14896 14833 14915 14916 
4     14916 14915 14917 14918 
4     14898 14896 14916 14912 
4     14912 14916 14918 14914 
4     14919 14920 14921 14922 
4     14920 14923 14924 14921 
4     14922 14921 14918 14917 
4     14921 14924 14914 14918 
4     14925 2594 2597 14926 
4     14926 2597 2601 14913 
4     14923 14925 14926 14924 
4     14924 14926 14913 14914 
4     2594 14927 14928 2595 
4     14927 14929 14930 14928 
4     2595 14928 14931 2598 
4     14928 14930 14932 14931 
4     14933 14934 14935 14936 
4     14936 14935 14937 14938 
4     14929 14933 14936 14930 
4     14930 14936 14938 14932 
4     3125 3128 14939 14940 
4     3128 3123 14941 14939 
4     14940 14939 14938 14937 
4     14939 14941 14932 14938 
4     3121 2461 2603 14942 
4     14942 2603 2598 14931 
4     3123 3121 14942 14941 
4     14941 14942 14931 14932 
4     5494 5629 14943 5495 
4     5629 5624 14944 14943 
4     5495 14943 14945 5497 
4     14943 14944 14946 14945 
4     5621 5507 5510 14947 
4     14947 5510 5514 14948 
4     5624 5621 14947 14944 
4     14944 14947 14948 14946 
4     5529 14949 14950 5530 
4     14949 14951 14952 14950 
4     5530 14950 14948 5514 
4     14950 14952 14946 14948 
4     14953 5499 5502 14954 
4     14954 5502 5497 14945 
4     14951 14953 14954 14952 
4     14952 14954 14945 14946 
4     5499 14953 14955 14325 
4     14953 14951 14956 14955 
4     14325 14955 14957 14319 
4     14955 14956 14958 14957 
4     14949 5529 14336 14959 
4     14959 14336 14333 14960 
4     14951 14949 14959 14956 
4     14956 14959 14960 14958 
4     14220 14219 14961 14331 
4     14219 14215 14962 14961 
4     14331 14961 14960 14333 
4     14961 14962 14958 14960 
4     14213 5085 14316 14963 
4     14963 14316 14319 14957 
4     14215 14213 14963 14962 
4     14962 14963 14957 14958 
4     5517 5516 14964 5619 
4     5516 5511 14965 14964 
4     5619 14964 14966 5613 
4     14964 14965 14967 14966 
4     5508 5507 5623 14968 
4     14968 5623 5627 14969 
4     5511 5508 14968 14965 
4     14965 14968 14969 14967 
4     4970 4969 14970 5637 
4     4969 4967 14971 14970 
4     5637 14970 14969 5627 
4     14970 14971 14967 14969 
4     4965 4948 5610 14972 
4     14972 5610 5613 14966 
4     4967 4965 14972 14971 
4     14971 14972 14966 14967 
4     3140 3139 14973 14974 
4     3139 3135 14975 14973 
4     14974 14973 14976 14977 
4     14973 14975 14978 14976 
4     3133 2663 2691 14979 
4     14979 2691 2689 14980 
4     3135 3133 14979 14975 
4     14975 14979 14980 14978 
4     2685 3162 14981 2686 
4     3162 3157 14982 14981 
4     2686 14981 14980 2689 
4     14981 14982 14978 14980 
4     3154 3153 14983 14984 
4     14984 14983 14977 14976 
4     3157 3154 14984 14982 
4     14982 14984 14976 14978 
4     14797 14985 14986 14798 
4     14985 14987 14988 14986 
4     14798 14986 14989 14800 
4     14986 14988 14990 14989 
4     14991 14992 14993 14994 
4     14994 14993 14995 14996 
4     14987 14991 14994 14988 
4     14988 14994 14996 14990 
4     14997 14998 14999 15000 
4     14998 15001 15002 14999 
4     15000 14999 14996 14995 
4     14999 15002 14990 14996 
4     15003 14802 14805 15004 
4     15004 14805 14800 14989 
4     15001 15003 15004 15002 
4     15002 15004 14989 14990 
4     14705 15005 15006 14706 
4     15005 15007 15008 15006 
4     14706 15006 15009 14709 
4     15006 15008 15010 15009 
4     15011 15012 15013 15014 
4     15014 15013 15015 15016 
4     15007 15011 15014 15008 
4     15008 15014 15016 15010 
4     15017 15018 15019 15020 
4     15018 15021 15022 15019 
4     15020 15019 15016 15015 
4     15019 15022 15010 15016 
4     15023 14715 14714 15024 
4     15024 14714 14709 15009 
4     15021 15023 15024 15022 
4     15022 15024 15009 15010 
4     15025 15026 15027 15028 
4     15026 15029 15030 15027 
4     15028 15027 15031 15032 
4     15027 15030 15033 15031 
4     15034 15035 15036 15037 
4     15037 15036 15038 15039 
4     15029 15034 15037 15030 
4     15030 15037 15039 15033 
4     14752 15040 15041 15042 
4     15040 15043 15044 15041 
4     15042 15041 15039 15038 
4     15041 15044 15033 15039 
4     15045 14869 15046 15047 
4     15047 15046 15032 15031 
4     15043 15045 15047 15044 
4     15044 15047 15031 15033 
4     15048 15049 15050 15051 
4     15049 15052 15053 15050 
4     15051 15050 15054 15055 
