
49954            

4     17624 17623 17628 17629 
4     17629 17628 14064 14063 
4     17630 8566 7277 13649 
4     13649 13644 17631 17630 
4     17630 17631 17632 17633 
4     17633 8568 8566 17630 
4     13643 8337 8336 17634 
4     17634 8336 8343 17635 
4     17635 17632 17631 17634 
4     17634 17631 13644 13643 
4     17636 8353 8352 17637 
4     17637 17638 17639 17636 
4     17636 17639 17632 17635 
4     17635 8343 8353 17636 
4     17640 4590 8571 17641 
4     17641 8571 8568 17633 
4     17633 17632 17639 17641 
4     17641 17639 17638 17640 
4     17642 4591 4590 17640 
4     17640 17638 17643 17642 
4     17642 17643 17644 17645 
4     17645 4593 4591 17642 
4     17637 8352 8356 17646 
4     17646 8356 8360 17647 
4     17647 17644 17643 17646 
4     17646 17643 17638 17637 
4     17648 8373 8372 17649 
4     17649 17650 17651 17648 
4     17648 17651 17644 17647 
4     17647 8360 8373 17648 
4     17652 4597 4596 17653 
4     17653 4596 4593 17645 
4     17645 17644 17651 17653 
4     17653 17651 17650 17652 
4     17654 7910 4597 17652 
4     17652 17650 17655 17654 
4     17654 17655 17656 17657 
4     17657 7912 7910 17654 
4     17649 8372 8376 17658 
4     17658 8376 8380 17659 
4     17659 17656 17655 17658 
4     17658 17655 17650 17649 
4     17660 8388 4162 17549 
4     17549 17554 17661 17660 
4     17660 17661 17656 17659 
4     17659 8380 8388 17660 
4     17566 7916 7915 17662 
4     17662 7915 7912 17657 
4     17657 17656 17661 17662 
4     17662 17661 17554 17566 
4     17663 8011 1071 4219 
4     4219 4214 17664 17663 
4     17663 17664 17665 17666 
4     17666 8013 8011 17663 
4     4213 4212 8391 17667 
4     17667 8391 8397 17668 
4     17668 17665 17664 17667 
4     17667 17664 4214 4213 
4     17669 8410 4207 4206 
4     4206 4204 17670 17669 
4     17669 17670 17665 17668 
4     17668 8397 8410 17669 
4     4203 4202 8016 17671 
4     17671 8016 8013 17666 
4     17666 17665 17670 17671 
4     17671 17670 4204 4203 
4     9269 9268 17503 17672 
4     17503 17498 17673 17672 
4     17673 17674 17675 17672 
4     17672 17675 9270 9269 
4     17497 9342 9341 17676 
4     17676 9341 9348 17677 
4     17677 17674 17673 17676 
4     17676 17673 17498 17497 
4     17678 9363 9362 9554 
4     17678 9554 9552 17679 
4     17679 17674 17677 17678 
4     17677 9348 9363 17678 
4     17680 9550 9276 9275 
4     9275 9270 17675 17680 
4     17680 17675 17674 17679 
4     17679 9552 9550 17680 
4     17681 9480 9479 17682 
4     17682 17683 17684 17681 
4     17681 17684 17685 17686 
4     17686 9482 9480 17681 
4     17687 9560 9559 17688 
4     17688 9559 9557 17689 
4     17689 17685 17684 17688 
4     17688 17684 17683 17687 
4     17690 9555 9362 9361 
4     9361 9359 17691 17690 
4     17690 17691 17685 17689 
4     17689 9557 9555 17690 
4     9358 9357 9485 17692 
4     17692 9485 9482 17686 
4     17686 17685 17691 17692 
4     17692 17691 9359 9358 
4     17693 7326 504 8344 
4     8344 8339 17694 17693 
4     17693 17694 17695 17696 
4     17696 7328 7326 17693 
4     8338 8337 13642 17697 
4     17697 13642 13648 17698 
4     17698 17695 17694 17697 
4     17697 17694 8339 8338 
4     17699 13657 7176 7175 
4     7175 7173 17700 17699 
4     17699 17700 17695 17698 
4     17698 13648 13657 17699 
4     7172 7171 7331 17701 
4     17701 7331 7328 17696 
4     17696 17695 17700 17701 
4     17701 17700 7173 7172 
4     17556 4182 14072 17702 
4     17702 14072 14069 17703 
4     17703 17704 17705 17702 
4     17702 17705 17557 17556 
4     17706 14067 8332 8331 
4     8331 8329 17707 17706 
4     17706 17707 17704 17703 
4     17703 14069 14067 17706 
4     8328 8327 14000 17708 
4     17708 14000 13994 17709 
4     17709 17704 17707 17708 
4     17708 17707 8329 8328 
4     17710 13992 13991 17559 
4     17559 17557 17705 17710 
4     17710 17705 17704 17709 
4     17709 13994 13992 17710 
4     17609 7406 17145 17711 
4     17711 17145 17141 17712 
4     17712 17713 17714 17711 
4     17711 17714 17611 17609 
4     17715 17139 9560 17687 
4     17687 17683 17716 17715 
4     17715 17716 17713 17712 
4     17712 17141 17139 17715 
4     17682 9479 17184 17717 
4     17717 17184 17181 17718 
4     17718 17713 17716 17717 
4     17717 17716 17683 17682 
4     17719 17179 17178 17613 
4     17613 17611 17714 17719 
4     17719 17714 17713 17718 
4     17718 17181 17179 17719 
4     17720 17721 9350 9349 
4     9349 9344 17722 17720 
4     17720 17722 17723 17724 
4     17724 17725 17721 17720 
4     9343 9342 17496 17726 
4     17726 17496 17502 17727 
4     17727 17723 17722 17726 
4     17726 17722 9344 9343 
4     17728 17511 4187 17573 
4     17573 17569 17729 17728 
4     17728 17729 17723 17727 
4     17727 17502 17511 17728 
4     17568 841 17730 17731 
4     17731 17730 17725 17724 
4     17724 17723 17729 17731 
4     17731 17729 17569 17568 
4     9586 9585 17546 17732 
4     17732 17546 17543 17733 
4     17733 17734 17735 17732 
4     17732 17735 9587 9586 
4     17736 17541 3944 3943 
4     3943 3951 17737 17736 
4     17736 17737 17734 17733 
4     17733 17543 17541 17736 
4     3967 3966 17604 17738 
4     17738 17604 17608 17739 
4     17739 17734 17737 17738 
4     17738 17737 3951 3967 
4     17740 17619 9593 9592 
4     9592 9587 17735 17740 
4     17740 17735 17734 17739 
4     17739 17608 17619 17740 
4     17741 17742 215 214 
4     214 209 17743 17741 
4     17741 17743 17744 17745 
4     17745 17746 17742 17741 
4     208 207 17747 17748 
4     17748 17747 17749 17750 
4     17750 17744 17743 17748 
4     17748 17743 209 208 
4     17751 17752 17753 17754 
4     17754 17755 17756 17751 
4     17751 17756 17744 17750 
4     17750 17749 17752 17751 
4     17757 230 17758 17759 
4     17759 17758 17746 17745 
4     17745 17744 17756 17759 
4     17759 17756 17755 17757 
4     183 182 221 17760 
4     17760 221 218 17761 
4     17761 17762 17763 17760 
4     17760 17763 184 183 
4     17764 216 215 17765 
4     17764 17765 17766 17767 
4     17767 17762 17761 17764 
4     17761 218 216 17764 
4     17768 17769 17770 17771 
4     17771 17772 17773 17768 
4     17768 17773 17762 17767 
4     17767 17766 17769 17768 
4     17774 191 190 17775 
4     17775 190 184 17763 
4     17763 17762 17773 17775 
4     17775 17773 17772 17774 
4     4818 4488 4487 17776 
4     4487 4484 17777 17776 
4     17776 17777 17778 17779 
4     17779 4819 4818 17776 
4     17780 4482 457 456 
4     17780 456 464 17781 
4     17781 17778 17777 17780 
4     17777 4484 4482 17780 
4     17782 479 478 17783 
4     17783 17784 17785 17782 
4     17782 17785 17778 17781 
4     17781 464 479 17782 
4     17786 4823 4822 17787 
4     17787 4822 4819 17779 
4     17779 17778 17785 17787 
4     17787 17785 17784 17786 
4     17788 17789 766 765 
4     765 760 17790 17788 
4     17788 17790 17791 17792 
4     17792 17793 17789 17788 
4     759 758 17794 17795 
4     17795 17794 17796 17797 
4     17797 17791 17790 17795 
4     17795 17790 760 759 
4     17798 17799 4839 4838 
4     4838 4833 17800 17798 
4     17798 17800 17791 17797 
4     17797 17796 17799 17798 
4     4832 4831 17801 17802 
4     17802 17801 17793 17792 
4     17792 17791 17800 17802 
4     17802 17800 4833 4832 
4     17803 17804 1230 17805 
4     17805 17806 17807 17803 
4     17803 17807 17808 17809 
4     17809 17810 17804 17803 
4     17811 5377 5376 17812 
4     17812 5376 5383 17813 
4     17813 17808 17807 17812 
4     17812 17807 17806 17811 
4     17814 5389 1884 17815 
4     17815 17816 17817 17814 
4     17814 17817 17808 17813 
4     17813 5383 5389 17814 
4     17818 1294 17819 17820 
4     17820 17819 17810 17809 
4     17809 17808 17817 17820 
4     17820 17817 17816 17818 
4     17821 11198 1364 1363 
4     1363 1361 17822 17821 
4     17821 17822 17823 17824 
4     17824 11200 11198 17821 
4     1360 1359 17825 17826 
4     17826 17825 17827 17828 
4     17828 17823 17822 17826 
4     17826 17822 1361 1360 
4     17829 17830 4889 4888 
4     4888 4896 17831 17829 
4     17829 17831 17823 17828 
4     17828 17827 17830 17829 
4     4907 4906 11203 17832 
4     17832 11203 11200 17824 
4     17824 17823 17831 17832 
4     17832 17831 4896 4907 
4     17833 17825 1359 1856 
4     1856 1851 17834 17833 
4     17833 17834 17835 17836 
4     17836 17827 17825 17833 
4     1850 1849 17837 17838 
4     17838 17837 17839 17840 
4     17840 17835 17834 17838 
4     17838 17834 1851 1850 
4     17841 17842 4923 5456 
4     5456 5454 17843 17841 
4     17841 17843 17835 17840 
4     17840 17839 17842 17841 
4     5453 4889 17830 17844 
4     17844 17830 17827 17836 
4     17836 17835 17843 17844 
4     17844 17843 5454 5453 
4     17845 2539 2538 17846 
4     17846 17847 17848 17845 
4     17845 17848 17849 17850 
4     17850 2529 2539 17845 
4     17851 17852 17853 17854 
4     17854 17853 17855 17856 
4     17856 17849 17848 17854 
4     17854 17848 17847 17851 
4     17857 17858 17859 17860 
4     17860 17861 17862 17857 
4     17857 17862 17849 17856 
4     17856 17855 17858 17857 
4     17863 2523 2522 17864 
4     17864 2522 2529 17850 
4     17850 17849 17862 17864 
4     17864 17862 17861 17863 
4     17865 2614 2613 17866 
4     17866 17867 17868 17865 
4     17865 17868 17869 17870 
4     17870 2616 2614 17865 
4     17871 17872 17873 17874 
4     17874 17873 17875 17876 
4     17876 17869 17868 17874 
4     17874 17868 17867 17871 
4     17877 17878 17852 17851 
4     17851 17847 17879 17877 
4     17877 17879 17869 17876 
4     17876 17875 17878 17877 
4     17846 2538 2619 17880 
4     17880 2619 2616 17870 
4     17870 17869 17879 17880 
4     17880 17879 17847 17846 
4     17881 458 457 4481 
4     4481 4476 17882 17881 
4     17881 17882 17883 17884 
4     17884 460 458 17881 
4     4475 4474 17885 17886 
4     17886 17885 17887 17888 
4     17888 17883 17882 17886 
4     17886 17882 4476 4475 
4     17889 17890 4640 4639 
4     4639 4637 17891 17889 
4     17889 17891 17883 17888 
4     17888 17887 17890 17889 
4     4635 467 466 17892 
4     17892 466 460 17884 
4     17884 17883 17891 17892 
4     17892 17891 4637 4635 
4     17893 5261 5260 17894 
4     17894 17895 17896 17893 
4     17893 17896 17897 17898 
4     17898 5263 5261 17893 
4     17899 17900 17901 17902 
4     17902 17901 17903 17904 
4     17904 17897 17896 17902 
4     17902 17896 17895 17899 
4     17905 17906 17907 17908 
4     17908 17909 17910 17905 
4     17905 17910 17897 17904 
4     17904 17903 17906 17905 
4     17911 5267 5266 17912 
4     17912 5266 5263 17898 
4     17898 17897 17910 17912 
4     17912 17910 17909 17911 
4     17913 17837 1849 5384 
4     5384 5379 17914 17913 
4     17913 17914 17915 17916 
4     17916 17839 17837 17913 
4     5378 5377 17917 17918 
4     17918 17917 17919 17920 
4     17920 17915 17914 17918 
4     17918 17914 5379 5378 
4     17921 17922 4928 4927 
4     4927 4925 17923 17921 
4     17921 17923 17915 17920 
4     17920 17919 17922 17921 
4     4924 4923 17842 17924 
4     17924 17842 17839 17916 
4     17916 17915 17923 17924 
4     17924 17923 4925 4924 
4     17925 1239 1238 5587 
4     5587 5582 17926 17925 
4     17925 17926 17927 17928 
4     17928 1241 1239 17925 
4     5581 5580 17929 17930 
4     17930 17929 17931 17932 
4     17932 17927 17926 17930 
4     17930 17926 5582 5581 
4     17933 17934 4870 4869 
4     4869 4867 17935 17933 
4     17933 17935 17927 17932 
4     17932 17931 17934 17933 
4     4866 1245 1244 17936 
4     17936 1244 1241 17928 
4     17928 17927 17935 17936 
4     17936 17935 4867 4866 
4     6164 6163 14656 17937 
4     17937 14656 14650 17938 
4     17938 17939 17940 17937 
4     17937 17940 6165 6164 
4     14649 14648 17941 17942 
4     17941 17943 17944 17942 
4     17942 17944 17939 17938 
4     17938 14650 14649 17942 
4     17945 6975 6974 17946 
4     17946 6974 6972 17947 
4     17947 17939 17944 17946 
4     17946 17944 17943 17945 
4     17948 6970 6168 6167 
4     6167 6165 17940 17948 
4     17948 17940 17939 17947 
4     17947 6972 6970 17948 
4     17949 6639 17950 17951 
4     17951 17950 17952 17953 
4     17953 17954 17955 17951 
4     17955 17956 17949 17951 
4     17957 17958 6506 6505 
4     6505 6513 17959 17957 
4     17957 17959 17954 17953 
4     17953 17952 17958 17957 
4     17960 6528 6527 17961 
4     17961 17962 17963 17960 
4     17960 17963 17954 17959 
4     17959 6513 6528 17960 
4     17964 17965 17966 17967 
4     17967 17966 17956 17955 
4     17955 17954 17963 17967 
4     17967 17963 17962 17964 
4     17961 6527 6540 17968 
4     17968 6540 6534 17969 
4     17969 17970 17971 17968 
4     17968 17971 17962 17961 
4     17972 6532 6531 17973 
4     17973 17974 17975 17972 
4     17972 17975 17970 17969 
4     17969 6534 6532 17972 
4     17976 6931 17977 17978 
4     17978 17977 17979 17980 
4     17980 17970 17975 17978 
4     17978 17975 17974 17976 
4     17981 17982 17965 17964 
4     17964 17962 17971 17981 
4     17981 17971 17970 17980 
4     17980 17979 17982 17981 
4     6655 6516 6515 17983 
4     17983 6515 6509 17984 
4     17984 17985 17986 17983 
4     17983 17986 6656 6655 
4     17987 6507 6506 17988 
4     17988 17989 17990 17987 
4     17987 17990 17985 17984 
4     17984 6509 6507 17987 
4     17991 6787 6786 17992 
4     17992 6786 6783 17993 
4     17993 17985 17990 17992 
4     17992 17990 17989 17991 
4     17994 6781 6662 6661 
4     6661 6656 17986 17994 
4     17994 17986 17985 17993 
4     17993 6783 6781 17994 
4     17995 17996 6792 6791 
4     6791 6789 17997 17995 
4     17995 17997 17998 17999 
4     17999 18000 17996 17995 
4     6788 6787 18001 18002 
4     18002 18001 18003 18004 
4     18004 17998 17997 18002 
4     18002 17997 6789 6788 
4     18005 18006 6631 18007 
4     18007 18008 18009 18005 
4     18005 18009 17998 18004 
4     18004 18003 18006 18005 
4     18010 7011 18011 18012 
4     18012 18011 18000 17999 
4     17999 17998 18009 18012 
4     18012 18009 18008 18010 
4     18013 6824 6823 18014 
4     18014 18015 18016 18013 
4     18013 18016 18017 18018 
4     18018 6812 6824 18013 
4     18019 18020 18021 18022 
4     18022 18021 18023 18024 
4     18024 18017 18016 18022 
4     18022 18016 18015 18019 
4     18025 18026 6531 6530 
4     6530 6538 18027 18025 
4     18025 18027 18017 18024 
4     18024 18023 18026 18025 
4     6549 6548 6808 18028 
4     18028 6808 6812 18018 
4     18018 18017 18027 18028 
4     18028 18027 6538 6549 
4     18029 18030 6980 18031 
4     18031 18032 18033 18029 
4     18029 18033 18034 18035 
4     18035 18036 18030 18029 
4     18037 6960 6959 18038 
4     18038 6959 6966 18039 
4     18039 18034 18033 18038 
4     18038 18033 18032 18037 
4     18040 6976 6975 18041 
4     18041 18042 18043 18040 
4     18040 18043 18034 18039 
4     18039 6966 6976 18040 
4     18044 6197 18045 18046 
4     18046 18045 18036 18035 
4     18035 18034 18043 18046 
4     18046 18043 18042 18044 
4     12526 6827 6968 18047 
4     6968 6962 18048 18047 
4     18047 18048 18049 18050 
4     18050 12519 12526 18047 
4     6961 6960 18051 18052 
4     18052 18051 18053 18054 
4     18054 18049 18048 18052 
4     18052 18048 6962 6961 
4     18055 18056 18057 18058 
4     18058 18059 18060 18055 
4     18055 18060 18049 18054 
4     18054 18053 18056 18055 
4     18061 12513 12512 18062 
4     18062 12512 12519 18050 
4     18050 18049 18060 18062 
4     18062 18060 18059 18061 
4     18063 6793 6792 18064 
4     18064 18065 18066 18063 
4     18063 18066 18067 18068 
4     18068 6780 6793 18063 
4     18069 7046 7045 18070 
4     7045 7053 18071 18070 
4     18071 18067 18066 18070 
4     18070 18066 18065 18069 
4     7069 7068 11742 18072 
4     11742 11739 18073 18072 
4     18073 18067 18071 18072 
4     18072 18071 7053 7069 
4     11738 6766 6776 18074 
4     18074 6776 6780 18068 
4     18068 18067 18073 18074 
4     18074 18073 11739 11738 
4     18075 18076 7055 7054 
4     7054 7049 18077 18075 
4     18075 18077 18078 18079 
4     18079 18080 18076 18075 
4     7047 7046 18081 18082 
4     18082 18081 18083 18084 
4     18084 18078 18077 18082 
4     18082 18077 7049 7047 
4     18085 18086 7003 18087 
4     18087 18088 18089 18085 
4     18085 18089 18078 18084 
4     18084 18083 18086 18085 
4     18090 18091 18092 18093 
4     18093 18092 18080 18079 
4     18079 18078 18089 18093 
4     18093 18089 18088 18090 
4     18094 18095 7087 7086 
4     7086 7084 18096 18094 
4     18094 18096 18097 18098 
4     18098 18099 18095 18094 
4     7083 7055 18076 18100 
4     18100 18076 18080 18101 
4     18101 18097 18096 18100 
4     18100 18096 7084 7083 
4     18102 18092 18091 18103 
4     18103 18104 18105 18102 
4     18102 18105 18097 18101 
4     18101 18080 18092 18102 
4     18106 7100 18107 18108 
4     18108 18107 18099 18098 
4     18098 18097 18105 18108 
4     18108 18105 18104 18106 
4     18109 7088 7087 18110 
4     18110 18111 18112 18109 
4     18109 18112 18113 18114 
4     18114 7078 7088 18109 
4     18115 18116 18117 18118 
4     18118 18117 18119 18120 
4     18120 18113 18112 18118 
4     18118 18112 18111 18115 
4     18121 18122 12894 12893 
4     12893 12888 18123 18121 
4     18121 18123 18113 18120 
4     18120 18119 18122 18121 
4     18124 12886 7071 7070 
4     18124 7070 7078 18114 
4     18114 18113 18123 18124 
4     18123 12888 12886 18124 
4     18125 7402 4823 17786 
4     17786 17784 18126 18125 
4     18125 18126 18127 18128 
4     18128 7396 7402 18125 
4     17783 478 7116 18129 
4     18129 7116 7120 18130 
4     18130 18127 18126 18129 
4     18129 18126 17784 17783 
4     18131 7133 7132 13632 
4     13632 13630 18132 18131 
4     18131 18132 18127 18130 
4     18130 7120 7133 18131 
4     13629 7390 7389 18133 
4     18133 7389 7396 18128 
4     18128 18127 18132 18133 
4     18133 18132 13630 13629 
4     18134 17794 758 7539 
4     7539 7534 18135 18134 
4     18134 18135 18136 18137 
4     18137 17796 17794 18134 
4     7533 7532 7837 18138 
4     18138 7837 7843 18139 
4     18139 18136 18135 18138 
4     18138 18135 7534 7533 
4     18140 7852 7712 7711 
4     7711 7707 18141 18140 
4     18140 18141 18136 18139 
4     18139 7843 7852 18140 
4     7706 4839 17799 18142 
4     18142 17799 17796 18137 
4     18137 18136 18141 18142 
4     18142 18141 7707 7706 
4     18143 17885 4474 7844 
4     7844 7839 18144 18143 
4     18143 18144 18145 18146 
4     18146 17887 17885 18143 
4     7838 7532 7531 18147 
4     18147 7531 7538 18148 
4     18148 18145 18144 18147 
4     18147 18144 7839 7838 
4     18149 7548 7547 7948 
4     7948 7946 18150 18149 
4     18149 18150 18145 18148 
4     18148 7538 7548 18149 
4     7945 4640 17890 18151 
4     18151 17890 17887 18146 
4     18146 18145 18150 18151 
4     18151 18150 7946 7945 
4     18152 1365 1364 11197 
4     11197 11192 18153 18152 
4     18152 18153 18154 18155 
4     18155 1350 1365 18152 
4     11191 11190 18156 18157 
4     18157 18156 18158 18159 
4     18159 18154 18153 18157 
4     18157 18153 11192 11191 
4     18160 18161 11288 11287 
4     11287 11295 18162 18160 
4     18160 18162 18154 18159 
4     18159 18158 18161 18160 
4     11306 1344 1343 18163 
4     18163 1343 1350 18155 
4     18155 18154 18162 18163 
4     18163 18162 11295 11306 
4     18164 18165 11223 18166 
4     18166 18167 18168 18164 
4     18164 18168 18169 18170 
4     18170 18171 18165 18164 
4     18172 18173 18174 18175 
4     18175 18174 18176 18177 
4     18177 18169 18168 18175 
4     18175 18168 18167 18172 
4     18178 18179 18180 18181 
4     18181 18182 18183 18178 
4     18178 18183 18169 18177 
4     18177 18176 18179 18178 
4     18184 11978 18185 18186 
4     18186 18185 18171 18170 
4     18170 18169 18183 18186 
4     18186 18183 18182 18184 
4     18187 18188 11985 18189 
4     18189 18190 18191 18187 
4     18187 18191 18192 18193 
4     18193 18194 18188 18187 
4     18195 18196 18197 18198 
4     18198 18197 18199 18200 
4     18200 18192 18191 18198 
4     18198 18191 18190 18195 
4     18201 18202 18203 18204 
4     18204 18205 18206 18201 
4     18201 18206 18192 18200 
4     18200 18199 18202 18201 
4     18207 18208 18209 18210 
4     18210 18209 18194 18193 
4     18193 18192 18206 18210 
4     18210 18206 18205 18207 
4     18211 18212 18213 18214 
4     18214 18215 18216 18211 
4     18211 18216 18217 18218 
4     18218 18219 18212 18211 
4     18220 11190 11189 18221 
4     18221 11189 11196 18222 
4     18222 18217 18216 18221 
4     18221 18216 18215 18220 
4     18223 11209 11208 18224 
4     18224 18225 18226 18223 
4     18223 18226 18217 18222 
4     18222 11196 11209 18223 
4     18227 12899 18228 18229 
4     18229 18228 18219 18218 
4     18218 18217 18226 18229 
4     18229 18226 18225 18227 
4     14461 13639 13638 18230 
4     18230 13638 13635 18231 
4     18230 18231 18232 18233 
4     18230 18233 14462 14461 
4     18234 13633 7132 7131 
4     18234 7131 7129 18235 
4     18235 18232 18231 18234 
4     18231 13635 13633 18234 
4     18236 7127 7126 13777 
4     13777 13772 18237 18236 
4     18236 18237 18232 18235 
4     18235 7129 7127 18236 
4     13771 13770 14467 18238 
4     18238 14467 14462 18233 
4     18233 18232 18237 18238 
4     18238 18237 13772 13771 
4     18239 17929 5580 13879 
4     13879 13875 18240 18239 
4     18239 18240 18241 18242 
4     18242 17931 17929 18239 
4     13874 766 17789 18243 
4     18243 17789 17793 18244 
4     18244 18241 18240 18243 
4     18243 18240 13875 13874 
4     18245 17801 4831 13951 
4     13951 13947 18246 18245 
4     18245 18246 18241 18244 
4     18244 17793 17801 18245 
4     13946 4870 17934 18247 
4     18247 17934 17931 18242 
4     18242 18241 18246 18247 
4     18247 18246 13947 13946 
4     18248 18249 6176 18250 
4     18250 18251 18252 18248 
4     18248 18252 18253 18254 
4     18254 18255 18249 18248 
4     18256 14648 14647 18257 
4     18257 14647 14654 18258 
4     18258 18253 18252 18257 
4     18257 18252 18251 18256 
4     18259 14664 14663 18260 
4     18260 18261 18262 18259 
4     18259 18262 18253 18258 
4     18258 14654 14664 18259 
4     18263 14867 18264 18265 
4     18265 18264 18255 18254 
4     18254 18253 18262 18265 
4     18265 18262 18261 18263 
4     17908 17907 18266 18267 
4     18267 18266 18268 18269 
4     18269 18270 18271 18267 
4     18267 18271 17909 17908 
4     18272 18273 14663 14662 
4     14662 14660 18274 18272 
4     18272 18274 18270 18269 
4     18269 18268 18273 18272 
4     14659 14643 14896 18275 
4     18275 14896 14893 18276 
4     18276 18270 18274 18275 
4     18275 18274 14660 14659 
4     18277 14891 5267 17911 
4     17911 17909 18271 18277 
4     18277 18271 18270 18276 
4     18276 14893 14891 18277 
4     18278 8191 1428 13385 
4     13385 13380 18279 18278 
4     18278 18279 18280 18281 
4     18281 8193 8191 18278 
4     13379 533 532 18282 
4     18282 532 539 18283 
4     18283 18280 18279 18282 
4     18282 18279 13380 13379 
4     18284 554 553 3314 
4     3314 3312 18285 18284 
4     18284 18285 18280 18283 
4     18283 539 554 18284 
4     3311 3310 8196 18286 
4     18286 8196 8193 18281 
4     18281 18280 18285 18286 
4     18286 18285 3312 3311 
4     18287 4196 4195 18288 
4     18288 18289 18290 18287 
4     18287 18290 18291 18292 
4     18292 4198 4196 18287 
4     18293 1031 1030 18294 
4     18294 1030 1037 18295 
4     18295 18291 18290 18294 
4     18294 18290 18289 18293 
4     18296 1052 1051 8020 
4     8020 8018 18297 18296 
4     18296 18297 18291 18295 
4     18295 1037 1052 18296 
4     8017 4202 4201 18298 
4     18298 4201 4198 18292 
4     18292 18291 18297 18298 
4     18298 18297 8018 8017 
4     7468 5532 5531 18299 
4     5531 5525 18300 18299 
4     18299 18300 18301 18302 
4     18302 7469 7468 18299 
4     5524 1056 1055 18303 
4     18303 1055 1062 18304 
4     18304 18301 18300 18303 
4     18303 18300 5525 5524 
4     18305 1077 1076 18306 
4     18306 18307 18308 18305 
4     18305 18308 18301 18304 
4     18304 1062 1077 18305 
4     18309 7435 7472 18310 
4     18310 7472 7469 18302 
4     18302 18301 18308 18310 
4     18310 18308 18307 18309 
4     18311 2682 2681 18312 
4     18312 18313 18314 18311 
4     18311 18314 18315 18316 
4     18316 2667 2682 18311 
4     18317 2707 2706 18318 
4     18318 2706 2703 18319 
4     18319 18315 18314 18318 
4     18318 18314 18313 18317 
4     18320 2701 2700 18321 
4     18321 18322 18323 18320 
4     18320 18323 18315 18319 
4     18319 2703 2701 18320 
4     18324 2661 2660 18325 
4     18325 2660 2667 18316 
4     18316 18315 18323 18325 
4     18325 18323 18322 18324 
4     18326 3296 2661 18324 
4     18324 18322 18327 18326 
4     18326 18327 18328 18329 
4     18329 3286 3296 18326 
4     18321 2700 3299 18330 
4     18330 3299 3303 18331 
4     18331 18328 18327 18330 
4     18330 18327 18322 18321 
4     18332 3315 553 552 
4     552 550 18333 18332 
4     18332 18333 18328 18331 
4     18331 3303 3315 18332 
4     549 548 3280 18334 
4     18334 3280 3286 18329 
4     18329 18328 18333 18334 
4     18334 18333 550 549 
4     3230 3229 18335 18336 
4     18336 18335 18337 18338 
4     18338 18339 18340 18336 
4     18336 18340 3216 3230 
4     18341 18342 3492 3491 
4     3491 3489 18343 18341 
4     18341 18343 18339 18338 
4     18338 18337 18342 18341 
4     3488 2707 18317 18344 
4     18317 18313 18345 18344 
4     18345 18339 18343 18344 
4     18344 18343 3489 3488 
4     18312 2681 3212 18346 
4     3212 3216 18340 18346 
4     18346 18340 18339 18345 
4     18346 18345 18313 18312 
4     18347 7451 7450 18348 
4     18348 18349 18350 18347 
4     18347 18350 18351 18352 
4     18352 7453 7451 18347 
4     18353 4582 4581 18354 
4     18354 4581 4588 18355 
4     18355 18351 18350 18354 
4     18354 18350 18349 18353 
4     18356 4603 4602 18357 
4     18357 18358 18359 18356 
4     18356 18359 18351 18355 
4     18355 4588 4603 18356 
4     18360 7457 7456 18361 
4     18361 7456 7453 18352 
4     18352 18351 18359 18361 
4     18361 18359 18358 18360 
4     1057 1056 5523 18362 
4     18362 5523 5529 18363 
4     18363 18364 18365 18362 
4     18362 18365 1058 1057 
4     18366 5544 5543 14004 
4     14004 14002 18367 18366 
4     18366 18367 18364 18363 
4     18363 5529 5544 18366 
4     14001 8327 8326 18368 
4     18368 8326 8323 18369 
4     18369 18364 18367 18368 
4     18368 18367 14002 14001 
4     18370 8321 1064 1063 
4     1063 1058 18365 18370 
4     18370 18365 18364 18369 
4     18369 8323 8321 18370 
4     7342 7341 18371 18372 
4     18372 18371 18373 18374 
4     18374 18375 18376 18372 
4     18372 18376 7343 7342 
4     18377 18378 7264 7263 
4     7263 7258 18379 18377 
4     18377 18379 18375 18374 
4     18374 18373 18378 18377 
4     7256 7255 18380 18381 
4     18380 18382 18383 18381 
4     18383 18375 18379 18381 
4     18381 18379 7258 7256 
4     18384 7350 7349 18385 
4     7349 7343 18376 18385 
4     18385 18376 18375 18383 
4     18383 18382 18384 18385 
4     14011 7622 7621 18386 
4     18386 7621 7628 18387 
4     18387 18388 18389 18386 
4     18386 18389 13998 14011 
4     18390 7643 7642 7920 
4     7920 7918 18391 18390 
4     18390 18391 18388 18387 
4     18387 7628 7643 18390 
4     7917 7916 17565 18392 
4     18392 17565 17562 18393 
4     18393 18388 18391 18392 
4     18392 18391 7918 7917 
4     18394 17560 13991 13990 
4     13990 13998 18389 18394 
4     18394 18389 18388 18393 
4     18393 17562 17560 18394 
4     18395 7974 7457 18360 
4     18360 18358 18396 18395 
4     18395 18396 18397 18398 
4     18398 7976 7974 18395 
4     18357 4602 7905 18399 
4     18399 7905 7909 18400 
4     18400 18397 18396 18399 
4     18399 18396 18358 18357 
4     18401 7921 7642 7641 
4     7641 7639 18402 18401 
4     18401 18402 18397 18400 
4     18400 7909 7921 18401 
4     7638 7637 7981 18403 
4     18403 7981 7976 18398 
4     18398 18397 18402 18403 
4     18403 18402 7639 7638 
4     18404 7436 7435 18309 
4     18309 18307 18405 18404 
4     18404 18405 18406 18407 
4     18407 7438 7436 18404 
4     18306 1076 8006 18408 
4     18408 8006 8010 18409 
4     18409 18406 18405 18408 
4     18408 18405 18307 18306 
4     18410 8021 1051 1050 
4     1050 1048 18411 18410 
4     18410 18411 18406 18409 
4     18409 8010 8021 18410 
4     1047 1046 7441 18412 
4     18412 7441 7438 18407 
4     18407 18406 18411 18412 
4     18412 18411 1048 1047 
4     18413 7488 7350 18384 
4     18384 18382 18414 18413 
4     18413 18414 18415 18416 
4     18416 7480 7488 18413 
4     18380 7255 8561 18417 
4     18417 8561 8565 18418 
4     18418 18415 18414 18417 
4     18417 18414 18382 18380 
4     18419 8573 4582 18353 
4     18353 18349 18420 18419 
4     18419 18420 18415 18418 
4     18418 8565 8573 18419 
4     18348 7450 7476 18421 
4     18421 7476 7480 18416 
4     18416 18415 18420 18421 
4     18421 18420 18349 18348 
4     18422 17448 9288 9287 
4     9287 9285 18423 18422 
4     18422 18423 18424 18425 
4     18425 17450 17448 18422 
4     9284 9283 9442 18426 
4     18426 9442 9439 18427 
4     18427 18424 18423 18426 
4     18426 18423 9285 9284 
4     18428 9437 9436 17472 
4     17472 17470 18429 18428 
4     18428 18429 18424 18427 
4     18427 9439 9437 18428 
4     17469 9307 17456 18430 
4     18430 17456 17450 18425 
4     18425 18424 18429 18430 
4     18430 18429 17470 17469 
4     18431 18432 9447 9446 
4     9446 9444 18433 18431 
4     18431 18433 18434 18435 
4     18435 18436 18432 18431 
4     9443 9283 9282 18437 
4     18437 9282 9279 18438 
4     18438 18434 18433 18437 
4     18437 18433 9444 9443 
4     18439 9277 9276 9549 
4     9549 9544 18440 18439 
4     18439 18440 18434 18438 
4     18438 9279 9277 18439 
4     9543 9542 18441 18442 
4     18442 18441 18436 18435 
4     18435 18434 18440 18442 
4     18442 18440 9544 9543 
4     18443 9618 9617 18444 
4     18444 9617 9611 18445 
4     18445 18446 18447 18444 
4     18444 18447 18448 18443 
4     18449 9609 9608 18450 
4     18450 18451 18452 18449 
4     18449 18452 18446 18445 
4     18445 9611 9609 18449 
4     18453 18454 7421 7420 
4     7420 7418 18455 18453 
4     18455 18446 18452 18453 
4     18452 18451 18454 18453 
4     7417 3959 18456 18457 
4     18457 18456 18448 18447 
4     18447 18446 18455 18457 
4     18457 18455 7418 7417 
4     18458 13323 541 540 
4     540 535 18459 18458 
4     18458 18459 18460 18461 
4     18461 13325 13323 18458 
4     534 533 13378 18462 
4     18462 13378 13384 18463 
4     18463 18460 18459 18462 
4     18462 18459 535 534 
4     18464 13394 13393 18465 
4     18465 18466 18467 18464 
4     18464 18467 18460 18463 
4     18463 13384 13394 18464 
4     18468 3954 13329 18469 
4     18469 13329 13325 18461 
4     18461 18460 18467 18469 
4     18469 18467 18466 18468 
4     3955 3954 18468 18470 
4     18468 18466 18471 18470 
4     18471 18472 18473 18470 
4     18470 18473 3956 3955 
4     18465 13393 13607 18474 
4     18474 13607 13611 18475 
4     18475 18472 18471 18474 
4     18474 18471 18466 18465 
4     18476 13616 9618 18443 
4     18443 18448 18477 18476 
4     18477 18472 18475 18476 
4     18475 13611 13616 18476 
4     18478 18456 3959 3958 
4     3958 3956 18473 18478 
4     18478 18473 18472 18477 
4     18477 18448 18456 18478 
4     14032 7630 7629 18479 
4     7629 7624 18480 18479 
4     18480 18481 18482 18479 
4     18479 18482 14033 14032 
4     7623 7622 14010 18483 
4     18483 14010 14007 18484 
4     18484 18481 18480 18483 
4     18480 7624 7623 18483 
4     18485 14005 5543 5542 
4     5542 5540 18486 18485 
4     18486 18481 18484 18485 
4     18484 14007 14005 18485 
4     18487 5538 5537 14037 
4     14037 14033 18482 18487 
4     18487 18482 18481 18486 
4     18486 5540 5538 18487 
4     14408 14407 14569 18488 
4     14569 14564 18489 18488 
4     18488 18489 18490 18491 
4     18491 14409 14408 18488 
4     14563 7264 18378 18492 
4     18492 18378 18373 18493 
4     18493 18490 18489 18492 
4     18492 18489 14564 14563 
4     18494 18371 7341 14587 
4     14587 14585 18495 18494 
4     18494 18495 18490 18493 
4     18493 18373 18371 18494 
4     14584 14415 14414 18496 
4     18496 14414 14409 18491 
4     18491 18490 18495 18496 
4     18496 18495 14585 14584 
4     18497 18450 9608 17191 
4     17191 17187 18498 18497 
4     18497 18498 18499 18500 
4     18500 18451 18450 18497 
4     17186 9447 18432 18501 
4     18501 18432 18436 18502 
4     18502 18499 18498 18501 
4     18501 18498 17187 17186 
4     18503 18441 9542 17152 
4     17152 17150 18504 18503 
4     18503 18504 18499 18502 
4     18502 18436 18441 18503 
4     17149 7421 18454 18505 
4     18505 18454 18451 18500 
4     18500 18499 18504 18505 
4     18505 18504 17150 17149 
4     18506 17504 9268 9267 
4     9267 9274 18507 18506 
4     18506 18507 18508 18509 
4     18509 17506 17504 18506 
4     18510 9289 9288 17447 
4     18510 17447 17454 18511 
4     18511 18508 18507 18510 
4     18507 9274 9289 18510 
4     18512 17460 1031 18293 
4     18293 18289 18513 18512 
4     18512 18513 18508 18511 
4     18511 17454 17460 18512 
4     18288 4195 17509 18514 
4     18514 17509 17506 18509 
4     18509 18508 18513 18514 
4     18514 18513 18289 18288 
4     18515 14512 14511 18516 
4     18516 14511 14508 18517 
4     18517 18518 18519 18516 
4     18516 18519 18520 18515 
4     18521 14506 7366 7365 
4     7365 7372 18522 18521 
4     18521 18522 18518 18517 
4     18517 14508 14506 18521 
4     18523 7386 7385 18524 
4     18523 18524 18525 18526 
4     18526 18518 18522 18523 
4     18522 7372 7386 18523 
4     18527 18528 18529 18530 
4     18530 18520 18519 18527 
4     18527 18519 18518 18526 
4     18526 18525 18528 18527 
4     18531 18532 18533 18534 
4     18534 18535 18536 18531 
4     18531 18536 18537 18538 
4     18538 18539 18532 18531 
4     18540 14540 14539 18541 
4     18541 14539 14536 18542 
4     18542 18537 18536 18541 
4     18541 18536 18535 18540 
4     18543 14534 8701 8700 
4     8700 8697 18544 18543 
4     18543 18544 18537 18542 
4     18542 14536 14534 18543 
4     8696 8695 18545 18546 
4     18546 18545 18539 18538 
4     18538 18537 18544 18546 
4     18546 18544 8697 8696 
4     18547 14528 14512 18515 
4     18515 18520 18548 18547 
4     18547 18548 18549 18550 
4     18550 14523 14528 18547 
4     18530 18529 18551 18552 
4     18552 18551 18553 18554 
4     18554 18549 18548 18552 
4     18552 18548 18520 18530 
4     18555 18556 13679 13702 
4     13702 13697 18557 18555 
4     18555 18557 18549 18554 
4     18554 18553 18556 18555 
4     13696 13695 14519 18558 
4     18558 14519 14523 18550 
4     18550 18549 18557 18558 
4     18558 18557 13697 13696 
4     18559 18529 18528 18560 
4     18560 18528 18525 18561 
4     18561 18562 18563 18560 
4     18560 18563 18564 18559 
4     18524 7385 9147 18565 
4     18565 9147 9151 18566 
4     18566 18562 18561 18565 
4     18561 18525 18524 18565 
4     18567 9159 9123 18568 
4     18568 18569 18570 18567 
4     18567 18570 18562 18566 
4     18566 9151 9159 18567 
4     18571 18572 18533 18573 
4     18573 18564 18563 18571 
4     18563 18562 18570 18571 
4     18571 18570 18569 18572 
4     18574 9145 9144 18575 
4     18575 18576 18577 18574 
4     18574 18577 18578 18579 
4     18579 9129 9145 18574 
4     18580 18581 14540 18540 
4     18540 18535 18582 18580 
4     18582 18578 18577 18580 
4     18580 18577 18576 18581 
4     18534 18533 18572 18583 
4     18572 18569 18584 18583 
4     18583 18584 18578 18582 
4     18583 18582 18535 18534 
4     18568 9123 9122 18585 
4     18585 9122 9129 18579 
4     18579 18578 18584 18585 
4     18585 18584 18569 18568 
4     18586 18551 18529 18559 
4     18559 18564 18587 18586 
4     18586 18587 18588 18589 
4     18589 18553 18551 18586 
4     18573 18533 18532 18590 
4     18590 18532 18539 18591 
4     18591 18588 18587 18590 
4     18590 18587 18564 18573 
4     18592 18545 8695 13686 
4     13686 13681 18593 18592 
4     18592 18593 18588 18591 
4     18591 18539 18545 18592 
4     13680 13679 18556 18594 
4     18594 18556 18553 18589 
4     18589 18588 18593 18594 
4     18594 18593 13681 13680 
4     18595 18596 583 18597 
4     18597 18598 18599 18595 
4     18595 18599 18600 18601 
4     18601 18602 18596 18595 
4     18603 8847 18604 18605 
4     18605 18604 18606 18607 
4     18607 18600 18599 18605 
4     18605 18599 18598 18603 
4     18608 18609 1630 1629 
4     1629 1624 18610 18608 
4     18608 18610 18600 18607 
4     18607 18606 18609 18608 
4     1623 1622 18611 18612 
4     18612 18611 18602 18601 
4     18601 18600 18610 18612 
4     18612 18610 1624 1623 
4     18613 18614 616 615 
4     615 610 18615 18613 
4     18613 18615 18616 18617 
4     18617 18618 18614 18613 
4     609 608 932 18619 
4     18619 932 938 18620 
4     18620 18616 18615 18619 
4     18619 18615 610 609 
4     18621 953 952 1666 
4     1666 1664 18622 18621 
4     18621 18622 18616 18620 
4     18620 938 953 18621 
4     1663 1662 18623 18624 
4     18624 18623 18618 18617 
4     18617 18616 18622 18624 
4     18624 18622 1664 1663 
4     18625 18626 940 939 
4     939 934 18627 18625 
4     18625 18627 18628 18629 
4     18629 18630 18626 18625 
4     933 608 607 18631 
4     18631 607 614 18632 
4     18632 18628 18627 18631 
4     18631 18627 934 933 
4     18633 629 628 13011 
4     13011 13009 18634 18633 
4     18633 18634 18628 18632 
4     18632 614 629 18633 
4     13008 977 18635 18636 
4     18636 18635 18630 18629 
4     18629 18628 18634 18636 
4     18636 18634 13009 13008 
4     18637 18638 4375 4374 
4     4374 4369 18639 18637 
4     18637 18639 18640 18641 
4     18641 18642 18638 18637 
4     4368 4367 18643 18644 
4     18644 18643 18645 18646 
4     18646 18640 18639 18644 
4     18644 18639 4369 4368 
4     18647 18648 1402 1401 
4     1401 1396 18649 18647 
4     18647 18649 18640 18646 
4     18646 18645 18648 18647 
4     1395 1394 18650 18651 
4     18651 18650 18642 18641 
4     18641 18640 18649 18651 
4     18651 18649 1396 1395 
4     18652 4435 4400 4399 
4     4399 4394 18653 18652 
4     18652 18653 18654 18655 
4     18655 4422 4435 18652 
4     4393 4392 18656 18657 
4     18657 18656 18658 18659 
4     18659 18654 18653 18657 
4     18657 18653 4394 4393 
4     18660 18661 1213 1212 
4     1212 1207 18662 18660 
4     18660 18662 18654 18659 
4     18659 18658 18661 18660 
4     1206 1205 4416 18663 
4     18663 4416 4422 18655 
4     18655 18654 18662 18663 
4     18663 18662 1207 1206 
4     18664 4401 4400 4434 
4     4434 4432 18665 18664 
4     18664 18665 18666 18667 
4     18667 4403 4401 18664 
4     4431 4430 13928 18668 
4     18668 13928 13934 18669 
4     18669 18666 18665 18668 
4     18668 18665 4432 4431 
4     18670 13943 9084 14082 
4     14082 14087 18671 18670 
4     18670 18671 18666 18669 
4     18669 13934 13943 18670 
4     14093 4407 4406 18672 
4     18672 4406 4403 18667 
4     18667 18666 18671 18672 
4     18672 18671 14087 14093 
4     18673 8546 7145 13801 
4     13801 13796 18674 18673 
4     18673 18674 18675 18676 
4     18676 8547 8546 18673 
4     13795 4676 4675 18677 
4     18677 4675 4682 18678 
4     18678 18675 18674 18677 
4     18677 18674 13796 13795 
4     18679 4697 4696 18680 
4     18680 18681 18682 18679 
4     18679 18682 18675 18678 
4     18678 4682 4697 18679 
4     18683 4498 8551 18684 
4     18684 8551 8547 18676 
4     18676 18675 18682 18684 
4     18684 18682 18681 18683 
4     4499 4498 18683 18685 
4     18683 18681 18686 18685 
4     18685 18686 18687 18688 
4     18685 18688 4500 4499 
4     18680 4696 7491 18689 
4     18689 7491 7495 18690 
4     18690 18687 18686 18689 
4     18689 18686 18681 18680 
4     18691 7508 7507 18692 
4     18692 18693 18694 18691 
4     18691 18694 18687 18690 
4     18690 7495 7508 18691 
4     18695 18696 4506 4505 
4     4505 4500 18688 18695 
4     18688 18687 18694 18695 
4     18695 18694 18693 18696 
4     7855 4506 18696 18697 
4     18696 18693 18698 18697 
4     18697 18698 18699 18700 
4     18697 18700 7856 7855 
4     18692 7507 7798 18701 
4     18701 7798 7802 18702 
4     18702 18699 18698 18701 
4     18701 18698 18693 18692 
4     18703 7815 7814 9037 
4     9037 9035 18704 18703 
4     18703 18704 18699 18702 
4     18702 7802 7815 18703 
4     18705 9033 7552 7860 
4     7860 7856 18700 18705 
4     18700 18699 18704 18705 
4     18705 18704 9035 9033 
4     18706 18656 4392 8074 
4     8074 8070 18707 18706 
4     18706 18707 18708 18709 
4     18709 18658 18656 18706 
4     8069 4375 18638 18710 
4     18710 18638 18642 18711 
4     18711 18708 18707 18710 
4     18710 18707 8070 8069 
4     18712 18650 1394 8029 
4     8029 8025 18713 18712 
4     18712 18713 18708 18711 
4     18711 18642 18650 18712 
4     8024 1213 18661 18714 
4     18714 18661 18658 18709 
4     18709 18708 18713 18714 
4     18714 18713 8025 8024 
4     18715 18716 8738 8737 
4     8737 8733 18717 18715 
4     18715 18717 18718 18719 
4     18719 18720 18716 18715 
4     8732 591 18721 18722 
4     18722 18721 18723 18724 
4     18724 18718 18717 18722 
4     18722 18717 8733 8732 
4     18725 18726 1605 1604 
4     1604 1599 18727 18725 
4     18725 18727 18718 18724 
4     18724 18723 18726 18725 
4     1598 1597 18728 18729 
4     18729 18728 18720 18719 
4     18719 18718 18727 18729 
4     18729 18727 1599 1598 
4     18730 18731 8764 8763 
4     8763 8761 18732 18730 
4     18730 18732 18733 18734 
4     18734 18735 18731 18730 
4     8760 8759 9041 18736 
4     18736 9041 9047 18737 
4     18737 18733 18732 18736 
4     18736 18732 8761 8760 
4     18738 9056 8921 8920 
4     8920 8928 18739 18738 
4     18738 18739 18733 18737 
4     18737 9047 9056 18738 
4     8939 8938 18740 18741 
4     18741 18740 18735 18734 
4     18734 18733 18739 18741 
4     18741 18739 8928 8939 
4     18742 18743 8784 18744 
4     18744 18745 18746 18742 
4     18742 18746 18747 18748 
4     18748 18749 18743 18742 
4     18750 8827 18751 18752 
4     18752 18751 18753 18754 
4     18754 18747 18746 18752 
4     18752 18746 18745 18750 
4     18755 18756 1560 1559 
4     1559 1554 18757 18755 
4     18755 18757 18747 18754 
4     18754 18753 18756 18755 
4     1553 1552 18758 18759 
4     18759 18758 18749 18748 
4     18748 18747 18757 18759 
4     18759 18757 1554 1553 
4     18760 8793 8792 8814 
4     8814 8812 18761 18760 
4     18760 18761 18762 18763 
4     18763 8795 8793 18760 
4     8811 8764 18731 18764 
4     18764 18731 18735 18765 
4     18765 18762 18761 18764 
4     18764 18761 8812 8811 
4     18766 18740 8938 8963 
4     8963 8968 18767 18766 
4     18766 18767 18762 18765 
4     18765 18735 18740 18766 
4     8974 3884 8798 18768 
4     18768 8798 8795 18763 
4     18763 18762 18767 18768 
4     18768 18767 8968 8974 
4     18769 18770 8819 18771 
4     18771 18772 18773 18769 
4     18769 18773 18774 18775 
4     18775 18776 18770 18769 
4     18777 8738 18716 18778 
4     18778 18716 18720 18779 
4     18779 18774 18773 18778 
4     18778 18773 18772 18777 
4     18780 18728 1597 18781 
4     18781 18782 18783 18780 
4     18780 18783 18774 18779 
4     18779 18720 18728 18780 
4     18784 1592 18785 18786 
4     18786 18785 18776 18775 
4     18775 18774 18783 18786 
4     18786 18783 18782 18784 
4     18787 18788 8839 18789 
4     18789 18790 18791 18787 
4     18787 18791 18792 18793 
4     18793 18794 18788 18787 
4     18795 616 18614 18796 
4     18796 18614 18618 18797 
4     18797 18792 18791 18796 
4     18796 18791 18790 18795 
4     18798 18623 1662 18799 
4     18799 18800 18801 18798 
4     18798 18801 18792 18797 
4     18797 18618 18623 18798 
4     18802 2966 18803 18804 
4     18804 18803 18794 18793 
4     18793 18792 18801 18804 
4     18804 18801 18800 18802 
4     18805 13936 9022 9021 
4     9021 9029 18806 18805 
4     18806 18807 18808 18805 
4     18808 13938 13936 18805 
4     18809 9038 7814 7813 
4     7813 7811 18810 18809 
4     18809 18810 18807 18806 
4     18806 9029 9038 18809 
4     7810 7809 9162 18811 
4     18811 9162 9168 18812 
4     18812 18807 18810 18811 
4     18811 18810 7811 7810 
4     9174 9092 13941 18813 
4     18813 13941 13938 18808 
4     18813 18808 18807 18812 
4     18812 9168 9174 18813 
4     18814 18643 4367 9048 
4     9048 9043 18815 18814 
4     18814 18815 18816 18817 
4     18817 18645 18643 18814 
4     9042 8759 8758 18818 
4     18818 8758 8755 18819 
4     18819 18816 18815 18818 
4     18818 18815 9043 9042 
4     18820 8753 1449 1448 
4     1448 1444 18821 18820 
4     18820 18821 18816 18819 
4     18819 8755 8753 18820 
4     1443 1402 18648 18822 
4     18822 18648 18645 18817 
4     18817 18816 18821 18822 
4     18822 18821 1444 1443 
4     18823 18575 9144 9143 
4     9143 9140 18824 18823 
4     18823 18824 18825 18826 
4     18826 18576 18575 18823 
4     9139 9138 13809 18827 
4     18827 13809 13806 18828 
4     18828 18825 18824 18827 
4     18827 18824 9140 9139 
4     18829 13804 7136 14544 
4     14544 14542 18830 18829 
4     18829 18830 18825 18828 
4     18828 13806 13804 18829 
4     14541 14540 18581 18831 
4     18831 18581 18576 18826 
4     18826 18825 18830 18831 
4     18831 18830 14542 14541 
4     18832 18833 12985 12984 
4     12984 12980 18834 18832 
4     18832 18834 18835 18836 
4     18836 18837 18833 18832 
4     12979 940 18626 18838 
4     18838 18626 18630 18839 
4     18839 18835 18834 18838 
4     18838 18834 12980 12979 
4     18840 18635 977 976 
4     976 974 18841 18840 
4     18840 18841 18835 18839 
4     18839 18630 18635 18840 
4     973 972 18842 18843 
4     18843 18842 18837 18836 
4     18836 18835 18841 18843 
4     18843 18841 974 973 
4     18844 13821 4684 4683 
4     4683 4678 18845 18844 
4     18844 18845 18846 18847 
4     18844 18847 13816 13821 
4     4677 4676 13794 18848 
4     18848 13794 13800 18849 
4     18849 18846 18845 18848 
4     18848 18845 4678 4677 
4     13810 9138 9137 18850 
4     18850 9137 9134 18851 
4     18851 18846 18849 18850 
4     18850 18849 13800 13810 
4     18852 9132 9131 13811 
4     13811 13816 18847 18852 
4     18852 18847 18846 18851 
4     18851 9134 9132 18852 
4     749 748 9031 18853 
4     18853 9031 9025 18854 
4     18854 18855 18856 18853 
4     18853 18856 750 749 
4     18857 9023 9022 13935 
4     13935 13930 18858 18857 
4     18857 18858 18855 18854 
4     18854 9025 9023 18857 
4     13929 4430 4429 18859 
4     18859 4429 4426 18860 
4     18860 18855 18858 18859 
4     18859 18858 13930 13929 
4     18861 4424 753 752 
4     752 750 18856 18861 
4     18861 18856 18855 18860 
4     18860 4426 4424 18861 
4     18862 18863 13723 18864 
4     18864 18865 18866 18862 
4     18862 18866 18867 18868 
4     18868 18869 18863 18862 
4     18870 7161 14366 18871 
4     18871 14366 14370 18872 
4     18872 18867 18866 18871 
4     18871 18866 18865 18870 
4     14384 14383 18873 18874 
4     18874 18873 18875 18876 
4     18876 18867 18872 18874 
4     18872 14370 14384 18874 
4     18877 18878 18879 18880 
4     18880 18869 18868 18877 
4     18877 18868 18867 18876 
4     18876 18875 18878 18877 
4     18881 14593 14222 18882 
4     18882 18883 18884 18881 
4     18881 18884 18885 18886 
4     18886 14595 14593 18881 
4     18887 18879 18878 18888 
4     18888 18878 18875 18889 
4     18889 18885 18884 18888 
4     18888 18884 18883 18887 
4     18890 18873 14383 14485 
4     14485 14483 18891 18890 
4     18890 18891 18885 18889 
4     18889 18875 18873 18890 
4     14482 7317 14598 18892 
4     18892 14598 14595 18886 
4     18886 18885 18891 18892 
4     18892 18891 14483 14482 
4     18893 18894 18895 18896 
4     18896 18897 18898 18893 
4     18893 18898 18899 18900 
4     18900 18901 18894 18893 
4     18902 12369 12368 18903 
4     18903 12368 12363 18904 
4     18904 18899 18898 18903 
4     18903 18898 18897 18902 
