
6114             

4     21496 21497 21498 21499 
4     21497 21500 21501 21498 
4     21502 21503 21498 21501 
4     21503 21504 21499 21498 
4     21500 21505 21506 21501 
4     21505 21371 21370 21506 
4     21367 21507 21506 21370 
4     21507 21502 21501 21506 
4     21502 21507 21508 21509 
4     21507 21367 21366 21508 
4     21355 21485 21508 21366 
4     21485 21489 21509 21508 
4     21504 21503 21510 21511 
4     21503 21502 21509 21510 
4     21489 21495 21510 21509 
4     21495 21468 21511 21510 
4     21512 21513 21514 21515 
4     21513 21516 21517 21514 
4     21518 21519 21514 21517 
4     21519 21520 21515 21514 
4     21516 21521 21522 21517 
4     21521 21452 21455 21522 
4     21460 21523 21522 21455 
4     21523 21518 21517 21522 
4     21518 21523 21524 21525 
4     21523 21460 21467 21524 
4     21131 21205 21524 21467 
4     21205 21201 21525 21524 
4     21520 21519 21526 21527 
4     21519 21518 21525 21526 
4     21201 21200 21526 21525 
4     21200 21199 21527 21526 
4     21528 21529 21530 21531 
4     21529 21532 21533 21530 
4     21534 21535 21530 21533 
4     21535 21536 21531 21530 
4     21532 21537 21538 21533 
4     21537 20460 20463 21538 
4     20468 21539 21538 20463 
4     21539 21534 21533 21538 
4     21534 21539 21540 21541 
4     21539 20468 20475 21540 
4     17035 20733 21540 20475 
4     20733 20728 21541 21540 
4     21536 21535 21542 21543 
4     21535 21534 21541 21542 
4     20728 20725 21542 21541 
4     20725 20724 21543 21542 
4     20724 20727 21544 21545 
4     20727 20732 21546 21544 
4     21547 21548 21544 21546 
4     21548 21549 21545 21544 
4     20732 20739 21550 21546 
4     20739 20708 21357 21550 
4     21361 21551 21550 21357 
4     21551 21547 21546 21550 
4     21547 21551 21552 21553 
4     21551 21361 21369 21552 
4     21371 21554 21552 21369 
4     21554 21555 21553 21552 
4     21549 21548 21556 21557 
4     21548 21547 21553 21556 
4     21555 21558 21556 21553 
4     21558 21559 21557 21556 
4     21559 21558 21560 21561 
4     21558 21555 21562 21560 
4     21563 21564 21560 21562 
4     21564 21565 21561 21560 
4     21555 21554 21566 21562 
4     21554 21371 21505 21566 
4     21500 21567 21566 21505 
4     21567 21563 21562 21566 
4     21563 21567 21568 21569 
4     21567 21500 21497 21568 
4     21496 21570 21568 21497 
4     21570 21571 21569 21568 
4     21565 21564 21572 21573 
4     21564 21563 21569 21572 
4     21571 21574 21572 21569 
4     21574 21575 21573 21572 
4     21576 21577 21578 21579 
4     21577 21580 21581 21578 
4     21582 21583 21578 21581 
4     21583 21584 21579 21578 
4     21580 21585 21586 21581 
4     21585 21468 21471 21586 
4     21476 21587 21586 21471 
4     21587 21582 21581 21586 
4     21582 21587 21588 21589 
4     21587 21476 21483 21588 
4     21452 21521 21588 21483 
4     21521 21516 21589 21588 
4     21584 21583 21590 21591 
4     21583 21582 21589 21590 
4     21516 21513 21590 21589 
4     21513 21512 21591 21590 
4     21575 21574 21592 21593 
4     21574 21571 21594 21592 
4     21595 21596 21592 21594 
4     21596 21597 21593 21592 
4     21571 21570 21598 21594 
4     21570 21496 21499 21598 
4     21504 21599 21598 21499 
4     21599 21595 21594 21598 
4     21595 21599 21600 21601 
4     21599 21504 21511 21600 
4     21468 21585 21600 21511 
4     21585 21580 21601 21600 
4     21597 21596 21602 21603 
4     21596 21595 21601 21602 
4     21580 21577 21602 21601 
4     21577 21576 21603 21602 
4     21604 21605 21606 21607 
4     21605 21608 21609 21606 
4     21610 21611 21606 21609 
4     21611 21612 21607 21606 
4     21608 21613 21614 21609 
4     21613 20540 20543 21614 
4     20548 21615 21614 20543 
4     21615 21610 21609 21614 
4     21610 21615 21616 21617 
4     21615 20548 20555 21616 
4     20460 21537 21616 20555 
4     21537 21532 21617 21616 
4     21612 21611 21618 21619 
4     21611 21610 21617 21618 
4     21532 21529 21618 21617 
4     21529 21528 21619 21618 
4     21620 21621 21622 21623 
4     21621 21624 21625 21622 
4     21626 21627 21622 21625 
4     21627 21628 21623 21622 
4     21624 21629 21630 21625 
4     21629 21528 21531 21630 
4     21536 21631 21630 21531 
4     21631 21626 21625 21630 
4     21626 21631 21632 21633 
4     21631 21536 21543 21632 
4     20724 21545 21632 21543 
4     21545 21549 21633 21632 
4     21628 21627 21634 21635 
4     21627 21626 21633 21634 
4     21549 21557 21634 21633 
4     21557 21559 21635 21634 
4     21636 21637 21638 21639 
4     21637 21640 21641 21638 
4     21642 21643 21638 21641 
4     21643 21644 21639 21638 
4     21640 21645 21646 21641 
4     21645 21604 21607 21646 
4     21612 21647 21646 21607 
4     21647 21642 21641 21646 
4     21642 21647 21648 21649 
4     21647 21612 21619 21648 
4     21528 21629 21648 21619 
4     21629 21624 21649 21648 
4     21644 21643 21650 21651 
4     21643 21642 21649 21650 
4     21624 21621 21650 21649 
4     21621 21620 21651 21650 
4     21652 21653 21654 21655 
4     21653 21656 21657 21654 
4     21658 21659 21654 21657 
4     21659 21660 21655 21654 
4     21656 21661 21662 21657 
4     21661 21620 21623 21662 
4     21628 21663 21662 21623 
4     21663 21658 21657 21662 
4     21658 21663 21664 21665 
4     21663 21628 21635 21664 
4     21559 21561 21664 21635 
4     21561 21565 21665 21664 
4     21660 21659 21666 21667 
4     21659 21658 21665 21666 
4     21565 21573 21666 21665 
4     21573 21575 21667 21666 
4     21668 21669 21670 21671 
4     21669 21672 21673 21670 
4     21674 21675 21670 21673 
4     21675 21676 21671 21670 
4     21672 21677 21678 21673 
4     21677 21576 21579 21678 
4     21584 21679 21678 21579 
4     21679 21674 21673 21678 
4     21674 21679 21680 21681 
4     21679 21584 21591 21680 
4     21512 21682 21680 21591 
4     21682 21683 21681 21680 
4     21676 21675 21684 21685 
4     21675 21674 21681 21684 
4     21683 21686 21684 21681 
4     21686 21687 21685 21684 
4     21687 21686 21688 21689 
4     21686 21683 21690 21688 
4     21691 21692 21688 21690 
4     21692 21693 21689 21688 
4     21683 21682 21694 21690 
4     21682 21512 21515 21694 
4     21520 21695 21694 21515 
4     21695 21691 21690 21694 
4     21691 21695 21696 21697 
4     21695 21520 21527 21696 
4     21199 21698 21696 21527 
4     21698 21699 21697 21696 
4     21693 21692 21700 21701 
4     21692 21691 21697 21700 
4     21699 21702 21700 21697 
4     21702 21703 21701 21700 
4     21703 21702 21704 21705 
4     21702 21699 21706 21704 
4     21707 21708 21704 21706 
4     21708 21709 21705 21704 
4     21699 21698 21710 21706 
4     21698 21199 21197 21710 
4     21192 21711 21710 21197 
4     21711 21707 21706 21710 
4     21707 21711 21712 21713 
4     21711 21192 21189 21712 
4     21188 21714 21712 21189 
4     21714 21715 21713 21712 
4     21709 21708 21716 21717 
4     21708 21707 21713 21716 
4     21715 21718 21716 21713 
4     21718 21719 21717 21716 
4     21720 21721 21722 21723 
4     21721 21724 21725 21722 
4     21726 21727 21722 21725 
4     21727 21728 21723 21722 
4     21724 21729 21730 21725 
4     21729 21719 21718 21730 
4     21715 21731 21730 21718 
4     21731 21726 21725 21730 
4     21726 21731 21732 21733 
4     21731 21715 21714 21732 
4     21188 21217 21732 21714 
4     21217 21212 21733 21732 
4     21728 21727 21734 21735 
4     21727 21726 21733 21734 
4     21212 21209 21734 21733 
4     21209 21208 21735 21734 
4     21736 21737 21738 21739 
4     21737 21740 21741 21738 
4     21742 21743 21738 21741 
4     21743 21744 21739 21738 
4     21740 21745 21746 21741 
4     21745 21720 21723 21746 
4     21728 21747 21746 21723 
4     21747 21742 21741 21746 
4     21742 21747 21748 21749 
4     21747 21728 21735 21748 
4     21208 21233 21748 21735 
4     21233 21228 21749 21748 
4     21744 21743 21750 21751 
4     21743 21742 21749 21750 
4     21228 21225 21750 21749 
4     21225 21224 21751 21750 
4     21752 21753 21754 21755 
4     21753 21756 21757 21754 
4     21758 21759 21754 21757 
4     21759 21760 21755 21754 
4     21756 21761 21762 21757 
4     21761 21736 21739 21762 
4     21744 21763 21762 21739 
4     21763 21758 21757 21762 
4     21758 21763 21764 21765 
4     21763 21744 21751 21764 
4     21224 21249 21764 21751 
4     21249 21244 21765 21764 
4     21760 21759 21766 21767 
4     21759 21758 21765 21766 
4     21244 21241 21766 21765 
4     21241 21240 21767 21766 
4     21768 21769 21770 21771 
4     21769 21772 21773 21770 
4     21774 21775 21770 21773 
4     21775 21776 21771 21770 
4     21772 21777 21778 21773 
4     21777 21703 21705 21778 
4     21709 21779 21778 21705 
4     21779 21774 21773 21778 
4     21774 21779 21780 21781 
4     21779 21709 21717 21780 
4     21719 21782 21780 21717 
4     21782 21783 21781 21780 
4     21776 21775 21784 21785 
4     21775 21774 21781 21784 
4     21783 21786 21784 21781 
4     21786 21787 21785 21784 
4     21788 21789 21790 21791 
4     21789 21792 21793 21790 
4     21794 21795 21790 21793 
4     21795 21796 21791 21790 
4     21792 21797 21798 21793 
4     21797 21687 21689 21798 
4     21693 21799 21798 21689 
4     21799 21794 21793 21798 
4     21794 21799 21800 21801 
4     21799 21693 21701 21800 
4     21703 21777 21800 21701 
4     21777 21772 21801 21800 
4     21796 21795 21802 21803 
4     21795 21794 21801 21802 
4     21772 21769 21802 21801 
4     21769 21768 21803 21802 
4     21804 21805 21806 21807 
4     21805 21808 21809 21806 
4     21810 21811 21806 21809 
4     21811 21812 21807 21806 
4     21808 21813 21814 21809 
4     21813 21768 21771 21814 
4     21776 21815 21814 21771 
4     21815 21810 21809 21814 
4     21810 21815 21816 21817 
4     21815 21776 21785 21816 
4     21787 21818 21816 21785 
4     21818 21819 21817 21816 
4     21812 21811 21820 21821 
4     21811 21810 21817 21820 
4     21819 21822 21820 21817 
4     21822 21823 21821 21820 
4     21823 21822 21824 21825 
4     21822 21819 21826 21824 
4     21827 21828 21824 21826 
4     21828 21829 21825 21824 
4     21819 21818 21830 21826 
4     21818 21787 21786 21830 
4     21783 21831 21830 21786 
4     21831 21827 21826 21830 
4     21827 21831 21832 21833 
4     21831 21783 21782 21832 
4     21719 21729 21832 21782 
4     21729 21724 21833 21832 
4     21829 21828 21834 21835 
4     21828 21827 21833 21834 
4     21724 21721 21834 21833 
4     21721 21720 21835 21834 
4     21836 21837 21838 21839 
4     21837 21840 21841 21838 
4     21842 21843 21838 21841 
4     21843 21844 21839 21838 
4     21840 21845 21846 21841 
4     21845 21823 21825 21846 
4     21829 21847 21846 21825 
4     21847 21842 21841 21846 
4     21842 21847 21848 21849 
4     21847 21829 21835 21848 
4     21720 21745 21848 21835 
4     21745 21740 21849 21848 
4     21844 21843 21850 21851 
4     21843 21842 21849 21850 
4     21740 21737 21850 21849 
4     21737 21736 21851 21850 
4     21852 21853 21854 21855 
4     21853 21856 21857 21854 
4     21858 21859 21854 21857 
4     21859 21860 21855 21854 
4     21856 21861 21862 21857 
4     21861 21804 21807 21862 
4     21812 21863 21862 21807 
4     21863 21858 21857 21862 
4     21858 21863 21864 21865 
4     21863 21812 21821 21864 
4     21823 21845 21864 21821 
4     21845 21840 21865 21864 
4     21860 21859 21866 21867 
4     21859 21858 21865 21866 
4     21840 21837 21866 21865 
4     21837 21836 21867 21866 
4     21868 21869 21870 21871 
4     21869 21872 21873 21870 
4     21874 21875 21870 21873 
4     21875 21876 21871 21870 
4     21872 21877 21878 21873 
4     21877 21836 21839 21878 
4     21844 21879 21878 21839 
4     21879 21874 21873 21878 
4     21874 21879 21880 21881 
4     21879 21844 21851 21880 
4     21736 21761 21880 21851 
4     21761 21756 21881 21880 
4     21876 21875 21882 21883 
4     21875 21874 21881 21882 
4     21756 21753 21882 21881 
4     21753 21752 21883 21882 
4     21884 21885 21886 21887 
4     21885 21888 21889 21886 
4     21890 21891 21886 21889 
4     21891 21892 21887 21886 
4     21888 21893 21894 21889 
4     21893 21852 21855 21894 
4     21860 21895 21894 21855 
4     21895 21890 21889 21894 
4     21890 21895 21896 21897 
4     21895 21860 21867 21896 
4     21836 21877 21896 21867 
4     21877 21872 21897 21896 
4     21892 21891 21898 21899 
4     21891 21890 21897 21898 
4     21872 21869 21898 21897 
4     21869 21868 21899 21898 
4     21900 21901 21902 21903 
4     21901 21904 21905 21902 
4     21906 21907 21902 21905 
4     21907 21908 21903 21902 
4     21904 21909 21910 21905 
4     21909 21604 21645 21910 
4     21640 21911 21910 21645 
4     21911 21906 21905 21910 
4     21906 21911 21912 21913 
4     21911 21640 21637 21912 
4     21636 21914 21912 21637 
4     21914 21915 21913 21912 
4     21908 21907 21916 21917 
4     21907 21906 21913 21916 
4     21915 21918 21916 21913 
4     21918 21919 21917 21916 
4     21920 21921 21922 21923 
4     21921 21924 21925 21922 
4     21926 21927 21922 21925 
4     21927 21928 21923 21922 
4     21924 21929 21930 21925 
4     21929 20540 21613 21930 
4     21608 21931 21930 21613 
4     21931 21926 21925 21930 
4     21926 21931 21932 21933 
4     21931 21608 21605 21932 
4     21604 21909 21932 21605 
4     21909 21904 21933 21932 
4     21928 21927 21934 21935 
4     21927 21926 21933 21934 
4     21904 21901 21934 21933 
4     21901 21900 21935 21934 
4     21668 21936 21937 21669 
4     21936 21938 21939 21937 
4     21940 21941 21937 21939 
4     21941 21672 21669 21937 
4     21938 21942 21943 21939 
4     21942 21652 21655 21943 
4     21660 21944 21943 21655 
4     21944 21940 21939 21943 
4     21940 21944 21945 21946 
4     21944 21660 21667 21945 
4     21575 21593 21945 21667 
4     21593 21597 21946 21945 
4     21672 21941 21947 21677 
4     21941 21940 21946 21947 
4     21597 21603 21947 21946 
4     21603 21576 21677 21947 
4     21948 21949 21950 21951 
4     21949 21952 21953 21950 
4     21954 21955 21950 21953 
4     21955 21956 21951 21950 
4     21952 21957 21958 21953 
4     21957 21652 21942 21958 
4     21938 21959 21958 21942 
4     21959 21954 21953 21958 
4     21956 21955 21960 21961 
4     21955 21954 21959 21960 
4     21938 21936 21960 21959 
4     21936 21668 21961 21960 
4     21668 21671 21962 21963 
4     21671 21676 21964 21962 
4     21965 21966 21962 21964 
4     21966 21967 21963 21962 
4     21676 21685 21968 21964 
4     21685 21687 21797 21968 
4     21792 21969 21968 21797 
4     21969 21965 21964 21968 
4     21965 21969 21970 21971 
4     21969 21792 21789 21970 
4     21788 21972 21970 21789 
4     21972 21973 21971 21970 
4     21967 21966 21974 21975 
4     21966 21965 21971 21974 
4     21973 21976 21974 21971 
4     21976 21977 21975 21974 
4     21668 21963 21978 21961 
4     21963 21967 21979 21978 
4     21980 21981 21978 21979 
4     21981 21956 21961 21978 
4     21967 21975 21982 21979 
4     21975 21977 21983 21982 
4     21984 21985 21982 21983 
4     21985 21980 21979 21982 
4     21980 21985 21986 21987 
4     21985 21984 21988 21986 
4     21989 21990 21986 21988 
4     21990 21991 21987 21986 
4     21956 21981 21992 21951 
4     21981 21980 21987 21992 
4     21991 21993 21992 21987 
4     21993 21948 21951 21992 
4     21948 21994 21995 21949 
4     21994 21996 21997 21995 
4     21998 21999 21995 21997 
4     21999 21952 21949 21995 
4     21996 22000 22001 21997 
4     22000 21636 21639 22001 
4     21644 22002 22001 21639 
4     22002 21998 21997 22001 
4     21998 22002 22003 22004 
4     22002 21644 21651 22003 
4     21620 21661 22003 21651 
4     21661 21656 22004 22003 
4     21952 21999 22005 21957 
4     21999 21998 22004 22005 
4     21656 21653 22005 22004 
4     21653 21652 21957 22005 
4     21989 22006 22007 21990 
4     22006 22008 22009 22007 
4     22010 22011 22007 22009 
4     22011 21991 21990 22007 
4     22008 22012 22013 22009 
4     22012 21919 21918 22013 
4     21915 22014 22013 21918 
4     22014 22010 22009 22013 
4     22010 22014 22015 22016 
4     22014 21915 21914 22015 
4     21636 22000 22015 21914 
4     22000 21996 22016 22015 
4     21991 22011 22017 21993 
4     22011 22010 22016 22017 
4     21996 21994 22017 22016 
4     21994 21948 21993 22017 
4     21884 22018 22019 21885 
4     22018 22020 22021 22019 
4     22022 22023 22019 22021 
4     22023 21888 21885 22019 
4     22020 22024 22025 22021 
4     22024 22026 22027 22025 
4     22028 22029 22025 22027 
4     22029 22022 22021 22025 
4     22022 22029 22030 22031 
4     22029 22028 22032 22030 
4     22033 22034 22030 22032 
4     22034 22035 22031 22030 
4     21888 22023 22036 21893 
4     22023 22022 22031 22036 
4     22035 22037 22036 22031 
4     22037 21852 21893 22036 
4     22038 22039 22040 22041 
4     22039 22042 22043 22040 
4     22044 22045 22040 22043 
4     22045 22046 22041 22040 
4     22042 22047 22048 22043 
4     22047 21804 21861 22048 
4     21856 22049 22048 21861 
4     22049 22044 22043 22048 
4     22044 22049 22050 22051 
4     22049 21856 21853 22050 
4     21852 22037 22050 21853 
4     22037 22035 22051 22050 
4     22046 22045 22052 22053 
4     22045 22044 22051 22052 
4     22035 22034 22052 22051 
4     22034 22033 22053 22052 
4     21788 21791 22054 22055 
4     21791 21796 22056 22054 
4     22057 22058 22054 22056 
4     22058 22059 22055 22054 
4     21796 21803 22060 22056 
4     21803 21768 21813 22060 
4     21808 22061 22060 21813 
4     22061 22057 22056 22060 
4     22057 22061 22062 22063 
4     22061 21808 21805 22062 
4     21804 22047 22062 21805 
4     22047 22042 22063 22062 
4     22059 22058 22064 22065 
4     22058 22057 22063 22064 
4     22042 22039 22064 22063 
4     22039 22038 22065 22064 
4     21977 21976 22066 22067 
4     21976 21973 22068 22066 
4     22069 22070 22066 22068 
4     22070 22071 22067 22066 
4     21973 21972 22072 22068 
4     21972 21788 22055 22072 
4     22059 22073 22072 22055 
4     22073 22069 22068 22072 
4     22069 22073 22074 22075 
4     22073 22059 22065 22074 
4     22038 22076 22074 22065 
4     22076 22077 22075 22074 
4     22071 22070 22078 22079 
4     22070 22069 22075 22078 
4     22077 22080 22078 22075 
4     22080 22081 22079 22078 
4     22082 22083 22084 22085 
4     22083 22086 22087 22084 
4     22088 22089 22084 22087 
4     22089 22090 22085 22084 
4     22086 22091 22092 22087 
4     22091 21989 21988 22092 
4     21984 22093 22092 21988 
4     22093 22088 22087 22092 
4     22088 22093 22094 22095 
4     22093 21984 21983 22094 
4     21977 22067 22094 21983 
4     22067 22071 22095 22094 
4     22090 22089 22096 22097 
4     22089 22088 22095 22096 
4     22071 22079 22096 22095 
4     22079 22081 22097 22096 
4     21919 22012 22098 22099 
4     22012 22008 22100 22098 
4     22101 22102 22098 22100 
4     22102 22103 22099 22098 
4     22008 22006 22104 22100 
4     22006 21989 22091 22104 
4     22086 22105 22104 22091 
4     22105 22101 22100 22104 
4     22101 22105 22106 22107 
4     22105 22086 22083 22106 
4     22082 22108 22106 22083 
4     22108 22109 22107 22106 
4     22103 22102 22110 22111 
4     22102 22101 22107 22110 
4     22109 22112 22110 22107 
4     22112 22113 22111 22110 
4     21900 21903 22114 22115 
4     21903 21908 22116 22114 
4     22117 22118 22114 22116 
4     22118 22119 22115 22114 
4     21908 21917 22120 22116 
4     21917 21919 22099 22120 
4     22103 22121 22120 22099 
4     22121 22117 22116 22120 
4     22117 22121 22122 22123 
4     22121 22103 22111 22122 
4     22113 22124 22122 22111 
4     22124 22125 22123 22122 
4     22119 22118 22126 22127 
4     22118 22117 22123 22126 
4     22125 22128 22126 22123 
4     22128 22129 22127 22126 
4     21920 21923 22130 22131 
4     21923 21928 22132 22130 
4     22133 22134 22130 22132 
4     22134 22135 22131 22130 
4     21928 21935 22136 22132 
4     21935 21900 22115 22136 
4     22119 22137 22136 22115 
4     22137 22133 22132 22136 
4     22133 22137 22138 22139 
4     22137 22119 22127 22138 
4     22129 22140 22138 22127 
4     22140 22141 22139 22138 
4     22135 22134 22142 22143 
4     22134 22133 22139 22142 
4     22141 22144 22142 22139 
4     22144 22145 22143 22142 
4     22081 22080 22146 22147 
4     22080 22077 22148 22146 
4     22149 22150 22146 22148 
4     22150 22151 22147 22146 
4     22077 22076 22152 22148 
4     22076 22038 22153 22152 
4     22154 22155 22152 22153 
4     22155 22149 22148 22152 
4     22149 22155 22156 22157 
4     22155 22154 22158 22156 
4     22159 22160 22156 22158 
4     22160 22161 22157 22156 
4     22151 22150 22162 22163 
4     22150 22149 22157 22162 
4     22161 22164 22162 22157 
4     22164 22165 22163 22162 
4     22082 22085 22166 22167 
4     22085 22090 22168 22166 
4     22169 22170 22166 22168 
4     22170 22171 22167 22166 
4     22090 22097 22172 22168 
4     22097 22081 22147 22172 
4     22151 22173 22172 22147 
4     22173 22169 22168 22172 
4     22169 22173 22174 22175 
4     22173 22151 22163 22174 
4     22165 22176 22174 22163 
4     22176 22177 22175 22174 
4     22171 22170 22178 22179 
4     22170 22169 22175 22178 
4     22177 22180 22178 22175 
4     22180 22181 22179 22178 
4     22113 22112 22182 22183 
4     22112 22109 22184 22182 
4     22185 22186 22182 22184 
4     22186 22187 22183 22182 
4     22109 22108 22188 22184 
4     22108 22082 22167 22188 
4     22171 22189 22188 22167 
4     22189 22185 22184 22188 
4     22185 22189 22190 22191 
4     22189 22171 22179 22190 
4     22181 22192 22190 22179 
4     22192 22193 22191 22190 
4     22187 22186 22194 22195 
4     22186 22185 22191 22194 
4     22193 22196 22194 22191 
4     22196 22197 22195 22194 
4     22129 22128 22198 22199 
4     22128 22125 22200 22198 
4     22201 22202 22198 22200 
4     22202 22203 22199 22198 
4     22125 22124 22204 22200 
4     22124 22113 22183 22204 
4     22187 22205 22204 22183 
4     22205 22201 22200 22204 
4     22201 22205 22206 22207 
4     22205 22187 22195 22206 
4     22197 22208 22206 22195 
4     22208 22209 22207 22206 
4     22203 22202 22210 22211 
4     22202 22201 22207 22210 
4     22209 22212 22210 22207 
4     22212 22213 22211 22210 
4     22145 22144 22214 22215 
4     22144 22141 22216 22214 
4     22217 22218 22214 22216 
4     22218 22219 22215 22214 
4     22141 22140 22220 22216 
4     22140 22129 22199 22220 
4     22203 22221 22220 22199 
4     22221 22217 22216 22220 
4     22217 22221 22222 22223 
4     22221 22203 22211 22222 
4     22213 22224 22222 22211 
4     22224 22225 22223 22222 
4     22219 22218 22226 22227 
4     22218 22217 22223 22226 
4     22225 22228 22226 22223 
4     22228 22229 22227 22226 
4     22230 22231 22232 22233 
4     22231 22234 22235 22232 
4     22236 22237 22232 22235 
4     22237 22238 22233 22232 
4     22234 22239 22240 22235 
4     22239 20199 20198 22240 
4     20194 22241 22240 20198 
4     22241 22236 22235 22240 
4     22236 22241 22242 22243 
4     22241 20194 20193 22242 
4     20192 22244 22242 20193 
4     22244 22245 22243 22242 
4     22238 22237 22246 22247 
4     22237 22236 22243 22246 
4     22245 22248 22246 22243 
4     22248 22249 22247 22246 
4     22250 22251 22252 22253 
4     22251 22254 22255 22252 
4     22256 22257 22252 22255 
4     22257 22258 22253 22252 
4     22254 22259 22260 22255 
4     22259 20101 20212 22260 
4     20208 22261 22260 20212 
4     22261 22256 22255 22260 
4     22256 22261 22262 22263 
4     22261 20208 20206 22262 
4     20199 22239 22262 20206 
4     22239 22234 22263 22262 
4     22258 22257 22264 22265 
4     22257 22256 22263 22264 
4     22234 22231 22264 22263 
4     22231 22230 22265 22264 
4     22266 22267 22268 22269 
4     22267 22270 22271 22268 
4     22272 22273 22268 22271 
4     22273 22274 22269 22268 
4     22270 22275 22276 22271 
4     22275 20057 20110 22276 
4     20105 22277 22276 20110 
4     22277 22272 22271 22276 
4     22272 22277 22278 22279 
4     22277 20105 20102 22278 
4     20101 22259 22278 20102 
4     22259 22254 22279 22278 
4     22274 22273 22280 22281 
4     22273 22272 22279 22280 
4     22254 22251 22280 22279 
4     22251 22250 22281 22280 
4     22282 22283 22284 22285 
4     22283 22286 22287 22284 
4     22288 22289 22284 22287 
4     22289 22290 22285 22284 
4     22286 22291 22292 22287 
4     22291 16598 20066 22292 
4     20061 22293 22292 20066 
4     22293 22288 22287 22292 
4     22288 22293 22294 22295 
4     22293 20061 20058 22294 
4     20057 22275 22294 20058 
4     22275 22270 22295 22294 
4     22290 22289 22296 22297 
4     22289 22288 22295 22296 
4     22270 22267 22296 22295 
4     22267 22266 22297 22296 
4     22298 22299 22300 22301 
4     22299 22302 22303 22300 
4     22304 22305 22300 22303 
4     22305 22306 22301 22300 
4     22302 22307 22308 22303 
4     22307 16609 16607 22308 
4     16602 22309 22308 16607 
4     22309 22304 22303 22308 
4     22304 22309 22310 22311 
4     22309 16602 16599 22310 
4     16598 22291 22310 16599 
4     22291 22286 22311 22310 
4     22306 22305 22312 22313 
4     22305 22304 22311 22312 
4     22286 22283 22312 22311 
4     22283 22282 22313 22312 
4     22314 22315 22316 22317 
4     22315 22318 22319 22316 
4     22320 22321 22316 22319 
4     22321 22322 22317 22316 
4     22318 22323 22324 22319 
4     22323 18328 18327 22324 
4     18324 22325 22324 18327 
4     22325 22320 22319 22324 
4     22320 22325 22326 22327 
4     22325 18324 18323 22326 
4     16609 22307 22326 18323 
4     22307 22302 22327 22326 
4     22322 22321 22328 22329 
4     22321 22320 22327 22328 
4     22302 22299 22328 22327 
4     22299 22298 22329 22328 
4     22330 22331 22332 22333 
4     22331 22334 22335 22332 
4     22336 22337 22332 22335 
4     22337 22338 22333 22332 
4     22334 22339 22340 22335 
4     22339 18328 22323 22340 
4     22318 22341 22340 22323 
4     22341 22336 22335 22340 
4     22336 22341 22342 22343 
4     22341 22318 22315 22342 
4     22314 22344 22342 22315 
4     22344 22345 22343 22342 
4     22338 22337 22346 22347 
4     22337 22336 22343 22346 
4     22345 22348 22346 22343 
4     22348 22349 22347 22346 
4     22350 22351 22352 22353 
4     22351 22354 22355 22352 
4     22356 22357 22352 22355 
4     22357 22358 22353 22352 
4     22354 22359 22360 22355 
4     22359 22230 22233 22360 
4     22238 22361 22360 22233 
4     22361 22356 22355 22360 
4     22356 22361 22362 22363 
4     22361 22238 22247 22362 
4     22249 22364 22362 22247 
4     22364 22365 22363 22362 
4     22358 22357 22366 22367 
4     22357 22356 22363 22366 
4     22365 22368 22366 22363 
4     22368 22369 22367 22366 
4     22370 22371 22372 22373 
4     22371 22374 22375 22372 
4     22376 22377 22372 22375 
4     22377 22378 22373 22372 
4     22374 22379 22380 22375 
4     22379 22250 22253 22380 
4     22258 22381 22380 22253 
4     22381 22376 22375 22380 
4     22376 22381 22382 22383 
4     22381 22258 22265 22382 
4     22230 22359 22382 22265 
4     22359 22354 22383 22382 
4     22378 22377 22384 22385 
4     22377 22376 22383 22384 
4     22354 22351 22384 22383 
4     22351 22350 22385 22384 
4     22386 22387 22388 22389 
4     22387 22390 22391 22388 
4     22392 22393 22388 22391 
4     22393 22394 22389 22388 
4     22390 22395 22396 22391 
4     22395 22266 22269 22396 
4     22274 22397 22396 22269 
4     22397 22392 22391 22396 
4     22392 22397 22398 22399 
4     22397 22274 22281 22398 
4     22250 22379 22398 22281 
4     22379 22374 22399 22398 
4     22394 22393 22400 22401 
4     22393 22392 22399 22400 
4     22374 22371 22400 22399 
4     22371 22370 22401 22400 
4     22402 22403 22404 22405 
4     22403 22406 22407 22404 
4     22408 22409 22404 22407 
4     22409 22410 22405 22404 
4     22406 22411 22412 22407 
4     22411 22282 22285 22412 
4     22290 22413 22412 22285 
4     22413 22408 22407 22412 
4     22408 22413 22414 22415 
4     22413 22290 22297 22414 
4     22266 22395 22414 22297 
4     22395 22390 22415 22414 
4     22410 22409 22416 22417 
4     22409 22408 22415 22416 
4     22390 22387 22416 22415 
4     22387 22386 22417 22416 
4     22418 22419 22420 22421 
4     22419 22422 22423 22420 
4     22424 22425 22420 22423 
4     22425 22426 22421 22420 
4     22422 22427 22428 22423 
4     22427 22298 22301 22428 
4     22306 22429 22428 22301 
4     22429 22424 22423 22428 
4     22424 22429 22430 22431 
4     22429 22306 22313 22430 
4     22282 22411 22430 22313 
4     22411 22406 22431 22430 
4     22426 22425 22432 22433 
4     22425 22424 22431 22432 
4     22406 22403 22432 22431 
4     22403 22402 22433 22432 
4     22434 22435 22436 22437 
4     22435 22438 22439 22436 
4     22440 22441 22436 22439 
4     22441 22442 22437 22436 
4     22438 22443 22444 22439 
4     22443 22314 22317 22444 
4     22322 22445 22444 22317 
4     22445 22440 22439 22444 
4     22440 22445 22446 22447 
4     22445 22322 22329 22446 
4     22298 22427 22446 22329 
4     22427 22422 22447 22446 
4     22442 22441 22448 22449 
4     22441 22440 22447 22448 
4     22422 22419 22448 22447 
4     22419 22418 22449 22448 
4     22450 22451 22452 22453 
4     22451 22454 22455 22452 
4     22456 22457 22452 22455 
4     22457 22458 22453 22452 
4     22454 22459 22460 22455 
4     22459 22349 22348 22460 
4     22345 22461 22460 22348 
4     22461 22456 22455 22460 
4     22456 22461 22462 22463 
4     22461 22345 22344 22462 
4     22314 22443 22462 22344 
4     22443 22438 22463 22462 
4     22458 22457 22464 22465 
4     22457 22456 22463 22464 
4     22438 22435 22464 22463 
4     22435 22434 22465 22464 
4     22350 22353 22466 22467 
4     22353 22358 22468 22466 
4     22469 22470 22466 22468 
4     22470 22471 22467 22466 
4     22358 22367 22472 22468 
4     22367 22369 22473 22472 
4     22474 22475 22472 22473 
4     22475 22469 22468 22472 
4     22469 22475 22476 22477 
4     22475 22474 22478 22476 
4     22479 22480 22476 22478 
4     22480 22481 22477 22476 
4     22471 22470 22482 22483 
4     22470 22469 22477 22482 
4     22481 22484 22482 22477 
4     22484 22485 22483 22482 
4     22370 22373 22486 22487 
4     22373 22378 22488 22486 
4     22489 22490 22486 22488 
4     22490 22491 22487 22486 
4     22378 22385 22492 22488 
4     22385 22350 22467 22492 
4     22471 22493 22492 22467 
4     22493 22489 22488 22492 
4     22489 22493 22494 22495 
4     22493 22471 22483 22494 
4     22485 22496 22494 22483 
4     22496 22497 22495 22494 
4     22491 22490 22498 22499 
4     22490 22489 22495 22498 
4     22497 22500 22498 22495 
4     22500 22501 22499 22498 
4     22386 22389 22502 22503 
4     22389 22394 22504 22502 
4     22505 22506 22502 22504 
4     22506 22507 22503 22502 
4     22394 22401 22508 22504 
4     22401 22370 22487 22508 
4     22491 22509 22508 22487 
4     22509 22505 22504 22508 
4     22505 22509 22510 22511 
4     22509 22491 22499 22510 
4     22501 22512 22510 22499 
4     22512 22513 22511 22510 
4     22507 22506 22514 22515 
4     22506 22505 22511 22514 
4     22513 22516 22514 22511 
4     22516 22517 22515 22514 
4     22402 22405 22518 22519 
4     22405 22410 22520 22518 
4     22521 22522 22518 22520 
4     22522 22523 22519 22518 
4     22410 22417 22524 22520 
4     22417 22386 22503 22524 
4     22507 22525 22524 22503 
4     22525 22521 22520 22524 
4     22521 22525 22526 22527 
4     22525 22507 22515 22526 
4     22517 22528 22526 22515 
4     22528 22529 22527 22526 
4     22523 22522 22530 22531 
4     22522 22521 22527 22530 
4     22529 22532 22530 22527 
4     22532 22533 22531 22530 
4     22418 22421 22534 22535 
4     22421 22426 22536 22534 
4     22537 22538 22534 22536 
4     22538 22539 22535 22534 
4     22426 22433 22540 22536 
4     22433 22402 22519 22540 
4     22523 22541 22540 22519 
4     22541 22537 22536 22540 
4     22537 22541 22542 22543 
4     22541 22523 22531 22542 
4     22533 22544 22542 22531 
4     22544 22545 22543 22542 
4     22539 22538 22546 22547 
4     22538 22537 22543 22546 
4     22545 22548 22546 22543 
4     22548 22549 22547 22546 
4     22434 22437 22550 22551 
4     22437 22442 22552 22550 
4     22553 22554 22550 22552 
4     22554 22555 22551 22550 
4     22442 22449 22556 22552 
4     22449 22418 22535 22556 
4     22539 22557 22556 22535 
4     22557 22553 22552 22556 
4     22553 22557 22558 22559 
4     22557 22539 22547 22558 
4     22549 22560 22558 22547 
4     22560 22561 22559 22558 
4     22555 22554 22562 22563 
4     22554 22553 22559 22562 
4     22561 22564 22562 22559 
4     22564 22565 22563 22562 
4     22450 22453 22566 22567 
4     22453 22458 22568 22566 
4     22569 22570 22566 22568 
4     22570 22571 22567 22566 
4     22458 22465 22572 22568 
4     22465 22434 22551 22572 
4     22555 22573 22572 22551 
4     22573 22569 22568 22572 
4     22569 22573 22574 22575 
4     22573 22555 22563 22574 
4     22565 22576 22574 22563 
4     22576 22577 22575 22574 
4     22571 22570 22578 22579 
4     22570 22569 22575 22578 
4     22577 22580 22578 22575 
4     22580 22581 22579 22578 
4     22485 22484 22582 22583 
4     22484 22481 22584 22582 
4     22585 22586 22582 22584 
4     22586 22587 22583 22582 
4     22481 22480 22588 22584 
4     22480 22479 22589 22588 
4     22590 22591 22588 22589 
4     22591 22585 22584 22588 
4     22585 22591 22592 22593 
4     22591 22590 22594 22592 
4     22595 22596 22592 22594 
4     22596 22597 22593 22592 
4     22587 22586 22598 22599 
4     22586 22585 22593 22598 
4     22597 22600 22598 22593 
4     22600 22601 22599 22598 
4     22501 22500 22602 22603 
4     22500 22497 22604 22602 
4     22605 22606 22602 22604 
4     22606 22607 22603 22602 
4     22497 22496 22608 22604 
4     22496 22485 22583 22608 
4     22587 22609 22608 22583 
4     22609 22605 22604 22608 
4     22605 22609 22610 22611 
4     22609 22587 22599 22610 
4     22601 22612 22610 22599 
4     22612 22613 22611 22610 
4     22607 22606 22614 22615 
4     22606 22605 22611 22614 
4     22613 22616 22614 22611 
4     22616 22617 22615 22614 
4     22517 22516 22618 22619 
4     22516 22513 22620 22618 
4     22621 22622 22618 22620 
4     22622 22623 22619 22618 
4     22513 22512 22624 22620 
4     22512 22501 22603 22624 
4     22607 22625 22624 22603 
4     22625 22621 22620 22624 
4     22621 22625 22626 22627 
4     22625 22607 22615 22626 
4     22617 22628 22626 22615 
4     22628 22629 22627 22626 
4     22623 22622 22630 22631 
4     22622 22621 22627 22630 
4     22629 22632 22630 22627 
4     22632 22633 22631 22630 
4     22533 22532 22634 22635 
4     22532 22529 22636 22634 
4     22637 22638 22634 22636 
4     22638 22639 22635 22634 
4     22529 22528 22640 22636 
4     22528 22517 22619 22640 
4     22623 22641 22640 22619 
4     22641 22637 22636 22640 
4     22637 22641 22642 22643 
4     22641 22623 22631 22642 
4     22633 22644 22642 22631 
4     22644 22645 22643 22642 
4     22639 22638 22646 22647 
4     22638 22637 22643 22646 
4     22645 22648 22646 22643 
4     22648 22649 22647 22646 
4     22549 22548 22650 22651 
4     22548 22545 22652 22650 
4     22653 22654 22650 22652 
4     22654 22655 22651 22650 
4     22545 22544 22656 22652 
4     22544 22533 22635 22656 
4     22639 22657 22656 22635 
4     22657 22653 22652 22656 
4     22653 22657 22658 22659 
4     22657 22639 22647 22658 
4     22649 22660 22658 22647 
4     22660 22661 22659 22658 
4     22655 22654 22662 22663 
4     22654 22653 22659 22662 
4     22661 22664 22662 22659 
4     22664 22665 22663 22662 
4     22565 22564 22666 22667 
4     22564 22561 22668 22666 
4     22669 22670 22666 22668 
4     22670 22671 22667 22666 
4     22561 22560 22672 22668 
4     22560 22549 22651 22672 
4     22655 22673 22672 22651 
4     22673 22669 22668 22672 
4     22669 22673 22674 22675 
4     22673 22655 22663 22674 
4     22665 22676 22674 22663 
4     22676 22677 22675 22674 
4     22671 22670 22678 22679 
4     22670 22669 22675 22678 
4     22677 22680 22678 22675 
4     22680 22681 22679 22678 
4     22581 22580 22682 22683 
4     22580 22577 22684 22682 
4     22685 22686 22682 22684 
4     22686 22687 22683 22682 
4     22577 22576 22688 22684 
4     22576 22565 22667 22688 
4     22671 22689 22688 22667 
4     22689 22685 22684 22688 
4     22685 22689 22690 22691 
4     22689 22671 22679 22690 
4     22681 22692 22690 22679 
4     22692 22693 22691 22690 
4     22687 22686 22694 22695 
4     22686 22685 22691 22694 
4     22693 22696 22694 22691 
4     22696 22697 22695 22694 
4     22698 22699 22700 22701 
4     22699 22702 22703 22700 
4     22704 22705 22700 22703 
4     22705 22706 22701 22700 
4     22702 22707 22708 22703 
4     22707 22581 22683 22708 
4     22687 22709 22708 22683 
4     22709 22704 22703 22708 
4     22704 22709 22710 22711 
4     22709 22687 22695 22710 
4     22697 22712 22710 22695 
4     22712 22713 22711 22710 
4     22706 22705 22714 22715 
4     22705 22704 22711 22714 
4     22713 22716 22714 22711 
4     22716 22717 22715 22714 
4     22595 22594 22718 22719 
4     22594 22590 22720 22718 
4     22721 22722 22718 22720 
4     22722 22723 22719 22718 
4     22590 22589 22724 22720 
4     22589 22479 22725 22724 
4     22726 22727 22724 22725 
4     22727 22721 22720 22724 
4     22721 22727 22728 22729 
4     22727 22726 22730 22728 
4     22731 22732 22728 22730 
4     22732 22733 22729 22728 
4     22723 22722 22734 22735 
4     22722 22721 22729 22734 
4     22733 22736 22734 22729 
4     22736 22737 22735 22734 
4     22731 22730 22738 22739 
4     22730 22726 22740 22738 
4     22741 22742 22738 22740 
4     22742 22743 22739 22738 
4     22726 22725 22744 22740 
4     22725 22479 22478 22744 
4     22474 22745 22744 22478 
4     22745 22741 22740 22744 
4     22741 22745 22746 22747 
4     22745 22474 22473 22746 
4     22369 22748 22746 22473 
4     22748 22749 22747 22746 
4     22743 22742 22750 22751 
4     22742 22741 22747 22750 
4     22749 22752 22750 22747 
4     22752 22753 22751 22750 
4     22753 22752 22754 22755 
4     22752 22749 22756 22754 
4     22757 22758 22754 22756 
4     22758 22759 22755 22754 
4     22749 22748 22760 22756 
4     22748 22369 22368 22760 
4     22365 22761 22760 22368 
4     22761 22757 22756 22760 
4     22757 22761 22762 22763 
4     22761 22365 22364 22762 
4     22249 22764 22762 22364 
4     22764 22765 22763 22762 
4     22759 22758 22766 22767 
4     22758 22757 22763 22766 
4     22765 22768 22766 22763 
4     22768 22769 22767 22766 
4     22770 22771 22772 22773 
4     22771 22774 22775 22772 
4     22776 22777 22772 22775 
4     22777 22778 22773 22772 
4     22774 22779 22780 22775 
4     22779 22737 22736 22780 
4     22733 22781 22780 22736 
4     22781 22776 22775 22780 
4     22776 22781 22782 22783 
4     22781 22733 22732 22782 
4     22731 22739 22782 22732 
4     22739 22743 22783 22782 
4     22778 22777 22784 22785 
4     22777 22776 22783 22784 
4     22743 22751 22784 22783 
4     22751 22753 22785 22784 
4     22770 22773 22786 22787 
4     22773 22778 22788 22786 
4     22789 22790 22786 22788 
4     22790 22791 22787 22786 
4     22778 22785 22792 22788 
4     22785 22753 22755 22792 
4     22759 22793 22792 22755 
4     22793 22789 22788 22792 
4     22791 22790 22794 22795 
4     22790 22789 22793 22794 
4     22759 22767 22794 22793 
4     22767 22769 22795 22794 
4     22796 22797 22798 22799 
4     22797 22800 22801 22798 
4     22802 22803 22798 22801 
4     22803 22804 22799 22798 
4     22800 22805 22806 22801 
4     22805 20181 20184 22806 
4     20189 22807 22806 20184 
4     22807 22802 22801 22806 
4     22802 22807 22808 22809 
4     22807 20189 20203 22808 
4     20205 20274 22808 20203 
4     20274 20269 22809 22808 
4     22804 22803 22810 22811 
4     22803 22802 22809 22810 
4     20269 20266 22810 22809 
4     20266 20265 22811 22810 
4     22812 22813 22814 22815 
4     22813 22816 22817 22814 
4     22818 22819 22814 22817 
4     22819 22820 22815 22814 
4     22816 22821 22822 22817 
4     22821 22796 22799 22822 
4     22804 22823 22822 22799 
4     22823 22818 22817 22822 
4     22818 22823 22824 22825 
4     22823 22804 22811 22824 
4     20265 20310 22824 22811 
4     20310 20305 22825 22824 
4     22820 22819 22826 22827 
4     22819 22818 22825 22826 
4     20305 20302 22826 22825 
4     20302 20301 22827 22826 
4     22828 22829 22830 22831 
4     22829 22832 22833 22830 
4     22834 22835 22830 22833 
4     22835 22836 22831 22830 
4     22832 22837 22838 22833 
4     22837 22812 22815 22838 
4     22820 22839 22838 22815 
4     22839 22834 22833 22838 
4     22834 22839 22840 22841 
4     22839 22820 22827 22840 
4     20301 20342 22840 22827 
4     20342 20337 22841 22840 
4     22836 22835 22842 22843 
4     22835 22834 22841 22842 
4     20337 20334 22842 22841 
4     20334 20333 22843 22842 
4     22844 22845 22846 22847 
4     22845 22848 22849 22846 
4     22850 22851 22846 22849 
4     22851 22852 22847 22846 
4     22848 22853 22854 22849 
4     22853 20349 20352 22854 
4     20357 22855 22854 20352 
4     22855 22850 22849 22854 
4     22850 22855 22856 22857 
4     22855 20357 20364 22856 
4     20249 20374 22856 20364 
4     20374 20369 22857 22856 
4     22852 22851 22858 22859 
4     22851 22850 22857 22858 
4     20369 20366 22858 22857 
4     20366 20365 22859 22858 
4     22860 22861 22862 22863 
4     22861 22864 22865 22862 
4     22866 22867 22862 22865 
4     22867 22868 22863 22862 
4     22864 22869 22870 22865 
4     22869 20333 20336 22870 
4     20341 22871 22870 20336 
4     22871 22866 22865 22870 
4     22866 22871 22872 22873 
4     22871 20341 20348 22872 
4     20317 20358 22872 20348 
4     20358 20353 22873 22872 
4     22868 22867 22874 22875 
4     22867 22866 22873 22874 
4     20353 20350 22874 22873 
4     20350 20349 22875 22874 
4     22876 22877 22878 22879 
4     22877 22880 22881 22878 
4     22882 22883 22878 22881 
4     22883 22884 22879 22878 
4     22880 22885 22886 22881 
4     22885 22828 22831 22886 
4     22836 22887 22886 22831 
4     22887 22882 22881 22886 
4     22882 22887 22888 22889 
4     22887 22836 22843 22888 
4     20333 22869 22888 22843 
4     22869 22864 22889 22888 
4     22884 22883 22890 22891 
4     22883 22882 22889 22890 
4     22864 22861 22890 22889 
4     22861 22860 22891 22890 
4     22892 22893 22894 22895 
4     22893 22896 22897 22894 
4     22898 22899 22894 22897 
4     22899 22900 22895 22894 
4     22896 22901 22902 22897 
4     22901 18457 18456 22902 
4     18452 22903 22902 18456 
4     22903 22898 22897 22902 
4     22898 22903 22904 22905 
4     22903 18452 18451 22904 
4     18450 22906 22904 18451 
4     22906 22907 22905 22904 
4     22900 22899 22908 22909 
4     22899 22898 22905 22908 
4     22907 22910 22908 22905 
4     22910 22911 22909 22908 
4     22912 22913 22914 22915 
4     22913 22916 22917 22914 
4     22918 22919 22914 22917 
4     22919 22920 22915 22914 
4     22916 22921 22922 22917 
4     22921 22923 22924 22922 
4     22925 22926 22922 22924 
4     22926 22918 22917 22922 
4     22918 22926 22927 22928 
4     22926 22925 22929 22927 
4     22930 22931 22927 22929 
4     22931 22932 22928 22927 
4     22920 22919 22933 22934 
4     22919 22918 22928 22933 
4     22932 22935 22933 22928 
4     22935 22936 22934 22933 
4     22912 22937 22938 22913 
4     22937 22939 22940 22938 
4     22941 22942 22938 22940 
4     22942 22916 22913 22938 
4     22939 22943 22944 22940 
4     22943 22892 22895 22944 
4     22900 22945 22944 22895 
4     22945 22941 22940 22944 
4     22941 22945 22946 22947 
4     22945 22900 22909 22946 
4     22911 22948 22946 22909 
4     22948 22949 22947 22946 
4     22916 22942 22950 22921 
4     22942 22941 22947 22950 
4     22949 22951 22950 22947 
4     22951 22923 22921 22950 
4     22952 22953 22954 22955 
4     22953 22956 22957 22954 
4     22958 22959 22954 22957 
4     22959 22960 22955 22954 
4     22956 22961 22962 22957 
4     22961 22963 22964 22962 
4     22965 22966 22962 22964 
4     22966 22958 22957 22962 
4     22958 22966 22967 22968 
4     22966 22965 22969 22967 
4     22892 22943 22967 22969 
4     22943 22939 22968 22967 
4     22960 22959 22970 22971 
4     22959 22958 22968 22970 
4     22939 22937 22970 22968 
4     22937 22912 22971 22970 
4     22972 22973 22974 22975 
4     22973 22976 22977 22974 
4     22978 22979 22974 22977 
4     22979 22980 22975 22974 
4     22976 22981 22982 22977 
4     22981 22983 22984 22982 
4     22985 22986 22982 22984 
4     22986 22978 22977 22982 
4     22978 22986 22987 22988 
4     22986 22985 22989 22987 
4     22812 22837 22987 22989 
4     22837 22832 22988 22987 
4     22980 22979 22990 22991 
4     22979 22978 22988 22990 
4     22832 22829 22990 22988 
4     22829 22828 22991 22990 
4     22972 22975 22992 22993 
4     22975 22980 22994 22992 
4     22995 22996 22992 22994 
4     22996 22997 22993 22992 
4     22980 22991 22998 22994 
4     22991 22828 22885 22998 
4     22880 22999 22998 22885 
4     22999 22995 22994 22998 
4     22995 22999 23000 23001 
4     22999 22880 22877 23000 
4     22876 23002 23000 22877 
4     23002 23003 23001 23000 
4     22997 22996 23004 23005 
4     22996 22995 23001 23004 
4     23003 23006 23004 23001 
4     23006 23007 23005 23004 
4     23008 23009 23010 23011 
4     23009 23012 23013 23010 
4     23014 23015 23010 23013 
4     23015 23016 23011 23010 
4     23012 23017 23018 23013 
4     23017 23007 23019 23018 
4     23020 23021 23018 23019 
4     23021 23014 23013 23018 
4     23014 23021 23022 23023 
4     23021 23020 23024 23022 
4     22963 22961 23022 23024 
4     22961 22956 23023 23022 
4     23016 23015 23025 23026 
4     23015 23014 23023 23025 
4     22956 22953 23025 23023 
4     22953 22952 23026 23025 
4     22952 22955 23027 23028 
4     22955 22960 23029 23027 
4     23030 23031 23027 23029 
4     23031 23032 23028 23027 
4     22960 22971 23033 23029 
4     22971 22912 22915 23033 
4     22920 23034 23033 22915 
4     23034 23030 23029 23033 
4     23030 23034 23035 23036 
4     23034 22920 22934 23035 
4     22936 23037 23035 22934 
4     23037 23038 23036 23035 
4     23032 23031 23039 23040 
4     23031 23030 23036 23039 
4     23038 23041 23039 23036 
4     23041 23042 23040 23039 
4     23042 23043 23044 23040 
4     23043 23045 23046 23044 
4     23047 23048 23044 23046 
4     23048 23032 23040 23044 
4     23045 23049 23050 23046 
4     23049 23008 23011 23050 
4     23016 23051 23050 23011 
4     23051 23047 23046 23050 
4     23032 23048 23052 23028 
4     23048 23047 23051 23052 
4     23016 23026 23052 23051 
4     23026 22952 23028 23052 
4     23053 23054 23055 23056 
4     23054 23057 23058 23055 
4     23059 23060 23055 23058 
4     23060 23061 23056 23055 
4     23057 23062 23063 23058 
4     23062 22796 22821 23063 
4     22816 23064 23063 22821 
4     23064 23059 23058 23063 
4     23059 23064 23065 23066 
4     23064 22816 22813 23065 
4     22812 22989 23065 22813 
4     22989 22985 23066 23065 
4     23061 23060 23067 23068 
4     23060 23059 23066 23067 
4     22985 22984 23067 23066 
4     22984 22983 23068 23067 
4     23053 23056 23069 23070 
4     23056 23061 23071 23069 
4     23072 23073 23069 23071 
4     23073 23074 23070 23069 
4     23061 23068 23075 23071 
4     23068 22983 22981 23075 
4     22976 23076 23075 22981 
4     23076 23072 23071 23075 
4     23072 23076 23077 23078 
4     23076 22976 22973 23077 
4     22972 23079 23077 22973 
4     23079 23080 23078 23077 
4     23074 23073 23081 23082 
4     23073 23072 23078 23081 
4     23080 23083 23081 23078 
4     23083 23084 23082 23081 
4     23084 23083 23085 23086 
4     23083 23080 23087 23085 
4     23088 23089 23085 23087 
4     23089 23090 23086 23085 
4     23080 23079 23091 23087 
4     23079 22972 22993 23091 
4     22997 23092 23091 22993 
